0.0379437072353 -0.121599124762 0.317293047905
0.0379434933995 -0.121000904148 0.317291259766
0.0379432011571 -0.120402441467 0.317288815975
0.038037028774 -0.120101169594 0.318073421717
0.038173128179 -0.119929749161 0.319211512804
0.0383102076651 -0.119757105851 0.32035779953
0.0384482743601 -0.119583215529 0.321512341499
0.0385873425198 -0.119408075671 0.322675257921
0.0397893424705 -0.122501046504 0.332726627588
0.039838585308 -0.122025273109 0.333138406277
0.0398878709127 -0.121548079081 0.333550542593
0.0399962571886 -0.121248496202 0.334456890821
0.0400926900393 -0.120909451063 0.335263282061
0.0401896681714 -0.120569004514 0.336074233055
0.0402870418998 -0.120226684095 0.336888492107
0.0403849644737 -0.119882926036 0.337707340717
0.0372944986079 -0.138481122738 0.307029128075
0.037294567389 -0.137903167787 0.307029694319
0.037294567389 -0.13732495744 0.307029694319
0.037294567389 -0.136746747093 0.307029694319
0.037294567389 -0.136168536746 0.307029694319
0.037294567389 -0.135590326399 0.307029694319
0.037294567389 -0.135012116052 0.307029694319
0.037294567389 -0.134433905705 0.307029694319
0.037294567389 -0.133855695357 0.307029694319
0.037294567389 -0.13327748501 0.307029694319
0.037294567389 -0.132699274663 0.307029694319
0.037294567389 -0.132121064316 0.307029694319
0.037294567389 -0.131542853969 0.307029694319
0.037294567389 -0.130964643622 0.307029694319
0.037294567389 -0.130386433275 0.307029694319
0.037294567389 -0.129808222928 0.307029694319
0.037294567389 -0.12923001258 0.307029694319
0.037294567389 -0.128651802233 0.307029694319
0.037294567389 -0.128073591886 0.307029694319
0.037294567389 -0.127495381539 0.307029694319
0.037294567389 -0.126917171192 0.307029694319
0.037294567389 -0.126338960845 0.307029694319
0.037294567389 -0.125760750498 0.307029694319
0.037294567389 -0.125182540151 0.307029694319
0.037294567389 -0.124604329804 0.307029694319
0.037294567389 -0.124026119456 0.307029694319
0.037294567389 -0.123447909109 0.307029694319
0.037294567389 -0.122869698762 0.307029694319
0.037294567389 -0.122291488415 0.307029694319
0.037294567389 -0.121713278068 0.307029694319
0.0374349495449 -0.121591037669 0.308185398579
0.0375647176962 -0.121430133948 0.309253722429
0.0376953872415 -0.121268106242 0.310329467058
0.0386419522729 -0.123714157277 0.318122118711
0.0386416626684 -0.123114134548 0.318119734526
0.038641445465 -0.12251435035 0.318117946386
0.0386412210215 -0.121914550045 0.318116098642
0.0386410038182 -0.121314779429 0.318114310503
0.0386407105936 -0.120714778056 0.318111896515
0.0386404897702 -0.120115010836 0.318110078573
0.0387744318462 -0.119930219431 0.319212764502
0.0389136628243 -0.119757551482 0.320358991623
0.0390539834392 -0.119583902779 0.321514189243
0.0391952416486 -0.119408759441 0.322677105665
0.039337527954 -0.119232352171 0.323848485947
0.0404324971855 -0.121924351978 0.332862883806
0.0405112840867 -0.12153385226 0.333511501551
0.0406086853163 -0.121196463929 0.334313362837
0.0407066295544 -0.120857667592 0.335119694471
0.0408049719987 -0.120517010322 0.335929304361
0.0409038719316 -0.120174941566 0.336743503809
0.0410031700707 -0.119830969896 0.337560981512
0.0378253586773 -0.138307990889 0.306645274162
0.0378253586773 -0.137730504497 0.306645274162
0.0378253586773 -0.137153018105 0.306645274162
0.0378253586773 -0.136575531713 0.306645274162
0.0378253586773 -0.135998045321 0.306645274162
0.0378253586773 -0.135420558929 0.306645274162
0.0378253586773 -0.134843072537 0.306645274162
0.0378253586773 -0.134265586145 0.306645274162
0.0378253586773 -0.133688099752 0.306645274162
0.0378253586773 -0.13311061336 0.306645274162
0.0378253586773 -0.132533126968 0.306645274162
0.0378253586773 -0.131955640576 0.306645274162
0.0378253586773 -0.131378154184 0.306645274162
0.0378253586773 -0.130800667792 0.306645274162
0.0378253586773 -0.1302231814 0.306645274162
0.0378253586773 -0.129645695008 0.306645274162
0.0378253586773 -0.129068208616 0.306645274162
0.0378253586773 -0.128490722224 0.306645274162
0.0378253586773 -0.127913235832 0.306645274162
0.0378253586773 -0.12733574944 0.306645274162
0.0378253586773 -0.126758263048 0.306645274162
0.0378253586773 -0.126180776656 0.306645274162
0.0378253586773 -0.125603290264 0.306645274162
0.0378253586773 -0.125025803872 0.306645274162
0.0378253586773 -0.12444831748 0.306645274162
0.0378253586773 -0.123870831088 0.306645274162
0.0378253586773 -0.123293344696 0.306645274162
0.0378253586773 -0.122715858304 0.306645274162
0.0378253586773 -0.122138371912 0.306645274162
0.0378847326768 -0.121751698144 0.307126611471
0.0380154760544 -0.121591484479 0.308186531067
0.0381472561151 -0.121430578626 0.309254854918
0.0393433346923 -0.124637281659 0.318951308727
0.0393431141215 -0.124035924673 0.318949520588
0.0393428163508 -0.123434332215 0.3189471066
0.0393425884276 -0.122832966923 0.318945258856
0.0393423678567 -0.122231631433 0.318943470716
0.0393421436097 -0.121630291312 0.318941652775
0.039341845839 -0.121028731856 0.318939238787
0.0393416179158 -0.1204273953 0.318937391043
0.0393758063992 -0.119930891246 0.319214552641
0.0395172070256 -0.119758253352 0.320360869169
0.0396596259541 -0.119584368335 0.321515440941
0.0398030742133 -0.11940922264 0.322678357363
0.0399475665079 -0.119232813012 0.323849737644
0.0400931065141 -0.119055102549 0.325029611588
0.0411217571034 -0.121481832054 0.333368748426
0.0412205838775 -0.121144464068 0.334169924259
0.041319965755 -0.120805701406 0.334975600243
0.04141974466 -0.120465058897 0.335784494877
0.0415200896968 -0.120123007596 0.336597979069
0.0418131989611 -0.120332641285 0.338974177837
0.0383548252214 -0.138135047226 0.306261837482
0.0383548252214 -0.137558282937 0.306261837482
0.0383548252214 -0.136981518648 0.306261837482
0.0383548252214 -0.136404754359 0.306261837482
0.0383548252214 -0.13582799007 0.306261837482
0.0383548252214 -0.135251225781 0.306261837482
0.0383548252214 -0.134674461492 0.306261837482
0.0383548886706 -0.134097919036 0.306262344122
0.0383548886706 -0.133521153793 0.306262344122
0.0383548886706 -0.13294438855 0.306262344122
0.0383548886706 -0.132367623307 0.306262344122
0.0383548886706 -0.131790858064 0.306262344122
0.0383548886706 -0.131214092821 0.306262344122
0.0383548886706 -0.130637327577 0.306262344122
0.0383548886706 -0.130060562334 0.306262344122
0.0383548886706 -0.129483797091 0.306262344122
0.0383548886706 -0.128907031848 0.306262344122
0.0383548886706 -0.128330266605 0.306262344122
0.0383548886706 -0.127753501362 0.306262344122
0.0383548886706 -0.127176736118 0.306262344122
0.0383548886706 -0.126599970875 0.306262344122
0.0383548886706 -0.126023205632 0.306262344122
0.0383548886706 -0.125446440389 0.306262344122
0.0383548886706 -0.124869675146 0.306262344122
0.0383548886706 -0.124292909903 0.306262344122
0.0383548886706 -0.123716144659 0.306262344122
0.0383548886706 -0.123139379416 0.306262344122
0.0383548886706 -0.122562614173 0.306262344122
0.0383548886706 -0.12198584893 0.306262344122
0.0384632001882 -0.12175193443 0.307127207518
0.0385960740109 -0.121592142937 0.308188199997
0.0387298697132 -0.121431245642 0.30925655365
0.0400481574841 -0.124962295909 0.31978303194
0.0400479298134 -0.124359361 0.319781213999
0.0400476237643 -0.12375619073 0.319778770208
0.0400473960937 -0.123153270694 0.319776952267
0.040047168423 -0.122550357505 0.319775134325
0.0400468623739 -0.121947212492 0.319772690535
0.0400466347033 -0.121344314176 0.319770872593
0.0400464070326 -0.120741422707 0.319769054651
0.0400461793619 -0.120138538086 0.31976723671
0.040120750834 -0.119758932941 0.320362687111
0.0402652657189 -0.119584811722 0.321516633034
0.0404109114925 -0.119409685839 0.32267960906
0.0405576097763 -0.119233273854 0.323850989342
0.0419327704246 -0.120753767463 0.334831595421
0.042034076404 -0.120413406841 0.335640519857
0.0421357817401 -0.12007113744 0.336452633142
0.0388829612126 -0.137962506821 0.305879294872
0.0388829612126 -0.137386462951 0.305879294872
0.0388829612126 -0.136810419081 0.305879294872
0.0388829612126 -0.136234375211 0.305879294872
0.0388829612126 -0.135658331342 0.305879294872
0.0388830331928 -0.135082537536 0.305879861116
0.0388830331928 -0.1345064926 0.305879861116
0.0388830331928 -0.133930447664 0.305879861116
0.0388830331928 -0.133354402728 0.305879861116
0.0388830331928 -0.132778357792 0.305879861116
0.0388830331928 -0.132202312855 0.305879861116
0.0388830331928 -0.131626267919 0.305879861116
0.0388830331928 -0.131050222983 0.305879861116
0.0388830331928 -0.130474178047 0.305879861116
0.0388830331928 -0.129898133111 0.305879861116
0.0388830331928 -0.129322088174 0.305879861116
0.0388830331928 -0.128746043238 0.305879861116
0.0388830331928 -0.128169998302 0.305879861116
0.0388830331928 -0.127593953366 0.305879861116
0.0388830331928 -0.12701790843 0.305879861116
0.0388830331928 -0.126441863494 0.305879861116
0.0388830331928 -0.125865818557 0.305879861116
0.0388830331928 -0.125289773621 0.305879861116
0.0388830331928 -0.124713728685 0.305879861116
0.0388830331928 -0.124137683749 0.305879861116
0.0388830331928 -0.123561638813 0.305879861116
0.0388830331928 -0.122985593876 0.305879861116
0.0388830331928 -0.12240954894 0.305879861116
0.0388830331928 -0.121833504004 0.305879861116
0.0390417381363 -0.121752383373 0.307128340006
0.0391766100617 -0.121592589747 0.308189332485
0.0393023026192 -0.121400445868 0.309178113937
0.0407566622657 -0.125288998817 0.32061907649
0.0407564311714 -0.124684489436 0.320617258549
0.0407561205201 -0.124079744695 0.320614814758
0.0407558894258 -0.123475250186 0.320612996817
0.0407556507547 -0.122870739683 0.32061111927
0.0407553438918 -0.122266031675 0.320608705282
0.040755116586 -0.121661570253 0.320606917143
0.0407548779148 -0.121057081806 0.320605039597
0.0407546430321 -0.120452611628 0.320603191853
0.0407543285923 -0.119847914453 0.32060071826
0.0408709971076 -0.119585510056 0.32151851058
0.0394097870802 -0.137790423441 0.305497765541
0.0394097870802 -0.137215098082 0.305497765541
0.0394097870802 -0.136639772723 0.305497765541
0.0394098562822 -0.136064686288 0.305498301983
0.0394098562822 -0.135489359919 0.305498301983
0.0394098562822 -0.13491403355 0.305498301983
0.0394098562822 -0.134338707181 0.305498301983
0.0394098562822 -0.133763380812 0.305498301983
0.0394098562822 -0.133188054443 0.305498301983
0.0394098562822 -0.132612728074 0.305498301983
0.0394098562822 -0.132037401704 0.305498301983
0.0394098562822 -0.131462075335 0.305498301983
0.0394098562822 -0.130886748966 0.305498301983
0.0394098562822 -0.130311422597 0.305498301983
0.0394098562822 -0.129736096228 0.305498301983
0.0394098562822 -0.129160769859 0.305498301983
0.0394098562822 -0.12858544349 0.305498301983
0.0394098562822 -0.128010117121 0.305498301983
0.0394098562822 -0.127434790752 0.305498301983
0.0394098562822 -0.126859464383 0.305498301983
0.0394098562822 -0.126284138014 0.305498301983
0.0394098562822 -0.125708811645 0.305498301983
0.0394098562822 -0.125133485275 0.305498301983
0.0394098562822 -0.124558158906 0.305498301983
0.0394098562822 -0.123982832537 0.305498301983
0.0394098562822 -0.123407506168 0.305498301983
0.0394098562822 -0.122832179799 0.305498301983
0.0394098562822 -0.12225685343 0.305498301983
0.0394844867977 -0.121911955587 0.306076824665
0.03962028035 -0.121752832316 0.307129472494
0.0397571465334 -0.121593024799 0.308190435171
0.0414691233478 -0.126223536029 0.321461379528
0.0414688849853 -0.125617425321 0.321459531784
0.0414685697318 -0.125011089775 0.321457087994
0.0414683313693 -0.124404994108 0.32145524025
0.0414680930068 -0.1237989054 0.321453392506
0.0414678507998 -0.12319281223 0.321451514959
0.0414675393908 -0.122586521557 0.321449100971
0.0414673010284 -0.12198045485 0.321447253227
0.0414670665105 -0.121374406355 0.321445435286
0.0414667435678 -0.120768107179 0.32144293189
0.0414665090499 -0.12016207367 0.321441113949
0.0399352968469 -0.13761875676 0.305117160082
0.0399353709598 -0.137044402502 0.305117726326
0.0399353709598 -0.136469792848 0.305117726326
0.0399353709598 -0.135895183194 0.305117726326
0.0399353709598 -0.13532057354 0.305117726326
0.0399353709598 -0.134745963886 0.305117726326
0.0399353709598 -0.134171354232 0.305117726326
0.0399353709598 -0.133596744578 0.305117726326
0.0399353709598 -0.133022134924 0.305117726326
0.0399353709598 -0.13244752527 0.305117726326
0.0399353709598 -0.131872915615 0.305117726326
0.0399353709598 -0.131298305961 0.305117726326
0.0399353709598 -0.130723696307 0.305117726326
0.0399353709598 -0.130149086653 0.305117726326
0.0399353709598 -0.129574476999 0.305117726326
0.0399353709598 -0.128999867345 0.305117726326
0.0399353709598 -0.128425257691 0.305117726326
0.0399353709598 -0.127850648037 0.305117726326
0.0399353709598 -0.127276038383 0.305117726326
0.0399353709598 -0.126701428729 0.305117726326
0.0399353709598 -0.126126819074 0.305117726326
0.0399353709598 -0.12555220942 0.305117726326
0.0399353709598 -0.124977599766 0.305117726326
0.0399353709598 -0.124402990112 0.305117726326
0.0399354411721 -0.123828598167 0.305118262768
0.0399354411721 -0.123253987502 0.305118262768
0.0399354411721 -0.122679376838 0.305118262768
0.0399354411721 -0.122104766174 0.305118262768
0.0400610469885 -0.121912394792 0.306077927351
0.0401988229285 -0.121753269445 0.30713057518
0.0403377690726 -0.121593706773 0.308192163706
0.0421850924045 -0.126555277214 0.322306245565
0.0421848466616 -0.125947563774 0.322304368019
0.0421845229051 -0.12533962561 0.322301894426
0.0421842849636 -0.124731950504 0.322300076485
0.0421840392207 -0.12412425929 0.322298198938
0.0421837973785 -0.123516586569 0.322296351194
0.0421834814234 -0.122908704867 0.322293937206
0.0421832317799 -0.122301024513 0.322292029858
0.0421829938383 -0.121693385102 0.322290211916
0.0421826700819 -0.121085506206 0.322287738323
0.0404595748685 -0.137447775617 0.304738074541
0.0404595748685 -0.136873880938 0.304738074541
0.0404595748685 -0.136299986259 0.304738074541
0.0404595748685 -0.13572609158 0.304738074541
0.0404595748685 -0.135152196901 0.304738074541
0.0404595748685 -0.134578302222 0.304738074541
0.0404595748685 -0.134004407543 0.304738074541
0.0404595748685 -0.133430512864 0.304738074541
0.0404595748685 -0.132856618185 0.304738074541
0.0404596460909 -0.132282956368 0.304738610983
0.0404596460909 -0.131709060679 0.304738610983
0.0404596460909 -0.13113516499 0.304738610983
0.0404596460909 -0.130561269301 0.304738610983
0.0404596460909 -0.129987373611 0.304738610983
0.0404596460909 -0.129413477922 0.304738610983
0.0404596460909 -0.128839582233 0.304738610983
0.0404596460909 -0.128265686544 0.304738610983
0.0404596460909 -0.127691790854 0.304738610983
0.0404596460909 -0.127117895165 0.304738610983
0.0404596460909 -0.126543999476 0.304738610983
0.0404596460909 -0.125970103787 0.304738610983
0.0404596460909 -0.125396208097 0.304738610983
0.0404596460909 -0.124822312408 0.304738610983
0.0404596460909 -0.124248416719 0.304738610983
0.0404596460909 -0.12367452103 0.304738610983
0.0404596460909 -0.123100625341 0.304738610983
0.0404596460909 -0.122526729651 0.304738610983
0.0404596460909 -0.121952833962 0.304738610983
0.0406376113326 -0.121912833998 0.306079030037
0.0407774448395 -0.121753931046 0.30713224411
0.0408958443309 -0.121527367196 0.308024019003
0.0429048331949 -0.126888762002 0.323155552149
0.042904587873 -0.126279460761 0.323153704405
0.0429042594581 -0.125669923094 0.323151230812
0.0429040101794 -0.125060625416 0.323149353266
0.0429037609006 -0.124451334811 0.323147475719
0.0429034324857 -0.123841822849 0.323145002127
0.042903183207 -0.123232547509 0.32314312458
0.0429029378851 -0.122623290551 0.323141276836
0.0429026886063 -0.122014029299 0.32313939929
0.0409824692148 -0.137276942335 0.304359316826
0.0409824692148 -0.136703760947 0.304359316826
0.0409824692148 -0.13613057956 0.304359316826
0.0409824692148 -0.135557398172 0.304359316826
0.0409824692148 -0.134984216784 0.304359316826
0.0409824692148 -0.134411035397 0.304359316826
0.0409824692148 -0.133837854009 0.304359316826
0.0409825494734 -0.133264933602 0.304359912872
0.0409825494734 -0.132691751092 0.304359912872
0.0409825494734 -0.132118568582 0.304359912872
0.0409825494734 -0.131545386072 0.304359912872
0.0409825494734 -0.130972203562 0.304359912872
0.0409825494734 -0.130399021052 0.304359912872
0.0409825494734 -0.129825838542 0.304359912872
0.0409825494734 -0.129252656031 0.304359912872
0.0409825494734 -0.128679473521 0.304359912872
0.0409825494734 -0.128106291011 0.304359912872
0.0409825494734 -0.127533108501 0.304359912872
0.0409825494734 -0.126959925991 0.304359912872
0.0409825494734 -0.126386743481 0.304359912872
0.0409825494734 -0.125813560971 0.304359912872
0.0409825494734 -0.125240378461 0.304359912872
0.0409825494734 -0.124667195951 0.304359912872
0.0409825494734 -0.12409401344 0.304359912872
0.0409825494734 -0.12352083093 0.304359912872
0.0409825494734 -0.12294764842 0.304359912872
0.0409825494734 -0.12237446591 0.304359912872
0.0410733339982 -0.122071097547 0.305034130812
0.0412141116101 -0.121913071406 0.306079626083
0.0413560770494 -0.12175460446 0.307133942842
0.0436286276343 -0.127834929922 0.324011206627
0.0436283828456 -0.127224025501 0.324009388685
0.0436281300309 -0.126613104635 0.324007511139
0.0436277929448 -0.126001947456 0.324005007744
0.0436275361172 -0.125391030379 0.324003100395
0.0436272833026 -0.124780131963 0.324001222849
0.0436269542423 -0.124169023613 0.323998779058
0.0436267014277 -0.123558140407 0.323996901512
0.0436264486131 -0.122947264273 0.323995023966
0.0415040753263 -0.137106566078 0.30398157239
0.0415040753263 -0.136534096073 0.30398157239
0.0415040753263 -0.135961626069 0.30398157239
0.0415040753263 -0.135389156064 0.30398157239
0.0415040753263 -0.13481668606 0.30398157239
0.0415041526383 -0.13424446612 0.303982138634
0.0415041526383 -0.133671995049 0.303982138634
0.0415041526383 -0.133099523978 0.303982138634
0.0415041526383 -0.132527052907 0.303982138634
0.0415041526383 -0.131954581836 0.303982138634
0.0415041526383 -0.131382110765 0.303982138634
0.0415041526383 -0.130809639695 0.303982138634
0.0415041526383 -0.130237168624 0.303982138634
0.0415041526383 -0.129664697553 0.303982138634
0.0415041526383 -0.129092226482 0.303982138634
0.0415041526383 -0.128519755411 0.303982138634
0.0415041526383 -0.12794728434 0.303982138634
0.0415041526383 -0.127374813269 0.303982138634
0.0415041526383 -0.126802342198 0.303982138634
0.0415041526383 -0.126229871128 0.303982138634
0.0415041526383 -0.125657400057 0.303982138634
0.0415041526383 -0.125084928986 0.303982138634
0.0415041526383 -0.124512457915 0.303982138634
0.0415041526383 -0.123939986844 0.303982138634
0.0415041526383 -0.123367515773 0.303982138634
0.0415041526383 -0.122795044702 0.303982138634
0.0415041526383 -0.122222573631 0.303982138634
0.0416479449151 -0.122071562682 0.305035293102
0.0417906792375 -0.121913498741 0.306080698967
0.0419346342765 -0.121755041589 0.307135045528
0.0443560192309 -0.128173600398 0.324869602919
0.0443557588113 -0.127561044306 0.32486769557
0.0443554170107 -0.126948262479 0.324865192175
0.0443551606602 -0.126335733467 0.324863314629
0.0443549043097 -0.125723211526 0.324861437082
0.0443546479592 -0.125110696657 0.324859559536
0.0443543020895 -0.124497937589 0.324857026339
0.0443540457391 -0.123885438099 0.324855148792
0.0443537893886 -0.12327294568 0.324853271246
0.0420243824269 -0.136936593078 0.303604722023
0.0420243824269 -0.136364832773 0.303604722023
0.0420243824269 -0.135793072468 0.303604722023
0.0420244566802 -0.135221551086 0.303605258465
0.0420244566802 -0.134649789771 0.303605258465
0.0420244566802 -0.134078028456 0.303605258465
0.0420244566802 -0.13350626714 0.303605258465
0.0420244566802 -0.132934505825 0.303605258465
0.0420244566802 -0.13236274451 0.303605258465
0.0420244566802 -0.131790983194 0.303605258465
0.0420244566802 -0.131219221879 0.303605258465
0.0420244566802 -0.130647460563 0.303605258465
0.0420244566802 -0.130075699248 0.303605258465
0.0420244566802 -0.129503937933 0.303605258465
0.0420244566802 -0.128932176617 0.303605258465
0.0420245350586 -0.128360654703 0.303605824709
0.0420245350586 -0.127788892321 0.303605824709
0.0420245350586 -0.127217129939 0.303605824709
0.0420245350586 -0.126645367557 0.303605824709
0.0420245350586 -0.126073605176 0.303605824709
0.0420245350586 -0.125501842794 0.303605824709
0.0420245350586 -0.124930080412 0.303605824709
0.0420245350586 -0.12435831803 0.303605824709
0.0420245350586 -0.123786555649 0.303605824709
0.0420245350586 -0.123214793267 0.303605824709
0.0420245350586 -0.122643030885 0.303605824709
0.0420788183051 -0.12222894841 0.303997993469
0.0422225519594 -0.122072003964 0.305036395788
0.0423673334095 -0.121914163484 0.306082367897
0.0424776077271 -0.121653556824 0.306879043579
0.0450872709859 -0.128514058116 0.325732529163
0.0450870028492 -0.127899865225 0.325730592012
0.0450866522089 -0.127285446712 0.325728058815
0.0450863923225 -0.126671292716 0.325726181269
0.0450861324361 -0.126057145791 0.325724303722
0.0450858642994 -0.125442982983 0.325722366571
0.0450855219095 -0.124828621885 0.325719892979
0.0450852578979 -0.124214486045 0.32571798563
0.0425434039306 -0.13676705022 0.303228825331
0.0425434791941 -0.136196238762 0.303229361773
0.0425434791941 -0.13562518535 0.303229361773
0.0425434791941 -0.135054131938 0.303229361773
0.0425434791941 -0.134483078526 0.303229361773
0.0425434791941 -0.133912025114 0.303229361773
0.0425434791941 -0.133340971702 0.303229361773
0.0425434791941 -0.13276991829 0.303229361773
0.0425434791941 -0.132198864878 0.303229361773
0.0425434791941 -0.131627811466 0.303229361773
0.0425434791941 -0.131056758054 0.303229361773
0.0425435586389 -0.130485948308 0.303229928017
0.0425435586389 -0.12991489383 0.303229928017
0.0425435586389 -0.129343839352 0.303229928017
0.0425435586389 -0.128772784873 0.303229928017
0.0425435586389 -0.128201730395 0.303229928017
0.0425435586389 -0.127630675917 0.303229928017
0.0425435586389 -0.127059621438 0.303229928017
0.0425435586389 -0.12648856696 0.303229928017
0.0425435586389 -0.125917512481 0.303229928017
0.0425435586389 -0.125346458003 0.303229928017
0.0425435586389 -0.124775403525 0.303229928017
0.0425435586389 -0.124204349046 0.303229928017
0.0425435586389 -0.123633294568 0.303229928017
0.0425435586389 -0.12306224009 0.303229928017
0.0425435586389 -0.122491185611 0.303229928017
0.042651478124 -0.122229403751 0.303999125957
0.0427971589756 -0.12207243332 0.305037468672
0.0429439980488 -0.121914840098 0.306084066629
0.0458226760958 -0.129472125076 0.32660189271
0.0458224084923 -0.128856303076 0.326599985361
0.0458221408888 -0.128240488259 0.326598078012
0.0458217854778 -0.127624436062 0.326595544815
0.0458215178743 -0.127008636793 0.326593637466
0.0458212460895 -0.126392833173 0.326591700315
0.0458208948598 -0.125776818776 0.32658919692
0.0458206314376 -0.125161053658 0.326587319374
0.0458203638341 -0.124545284247 0.326585412025
0.0430612257364 -0.136598192899 0.302854448557
0.0430612257364 -0.136027845538 0.302854448557
0.0430612257364 -0.135457498178 0.302854448557
0.0430612257364 -0.134887150817 0.302854448557
0.0430612257364 -0.134316803456 0.302854448557
0.0430612257364 -0.133746456095 0.302854448557
0.0430612257364 -0.133176108735 0.302854448557
0.0430612257364 -0.132605761374 0.302854448557
0.0430612257364 -0.132035414013 0.302854448557
0.0430612935353 -0.131465273641 0.302854925394
0.0430612935353 -0.130894925382 0.302854925394
0.0430612935353 -0.130324577123 0.302854925394
0.0430612935353 -0.129754228865 0.302854925394
0.0430612935353 -0.129183880606 0.302854925394
0.0430612935353 -0.128613532347 0.302854925394
0.0430612935353 -0.128043184088 0.302854925394
0.0430612935353 -0.12747283583 0.302854925394
0.0430612935353 -0.126902487571 0.302854925394
0.0430612935353 -0.126332139312 0.302854925394
0.0430612935353 -0.125761791053 0.302854925394
0.0430612935353 -0.125191442795 0.302854925394
0.0430612935353 -0.124621094536 0.302854925394
0.0430612935353 -0.124050746277 0.302854925394
0.0430612935353 -0.123480398018 0.302854925394
0.0430612935353 -0.12291004976 0.302854925394
0.0430612935353 -0.122339701501 0.302854925394
0.043224137971 -0.12222984711 0.304000228643
0.0433717785077 -0.122072886528 0.30503860116
0.0435205843377 -0.121915279304 0.306085169315
0.0465617539631 -0.129817870321 0.327474057674
0.0465614785302 -0.129200394067 0.327472120523
0.0465612073346 -0.128582936812 0.327470213175
0.0465608429157 -0.12796523053 0.327467650175
0.0465605717201 -0.127347788877 0.327465742826
0.0465603047621 -0.126730365942 0.32746386528
0.0465599403431 -0.126112686095 0.32746130228
0.0465596606727 -0.12549524433 0.327459335327
0.0435776761023 -0.136429456555 0.302480340004
0.0435776761023 -0.135859813731 0.302480340004
0.0435776761023 -0.135290170906 0.302480340004
0.0435776761023 -0.134720528081 0.302480340004
0.0435776761023 -0.134150885256 0.302480340004
0.0435776761023 -0.133581242431 0.302480340004
0.0435776761023 -0.133011599606 0.302480340004
0.0435777576798 -0.132442204713 0.302480906248
0.0435777576798 -0.131872560822 0.302480906248
0.0435777576798 -0.131302916931 0.302480906248
0.0435777576798 -0.130733273039 0.302480906248
0.0435777576798 -0.130163629148 0.302480906248
0.0435777576798 -0.129593985257 0.302480906248
0.0435777576798 -0.129024341366 0.302480906248
0.0435777576798 -0.128454697474 0.302480906248
0.0435777576798 -0.127885053583 0.302480906248
0.0435777576798 -0.127315409692 0.302480906248
0.0435777576798 -0.126745765801 0.302480906248
0.0435777576798 -0.12617612191 0.302480906248
0.0435777576798 -0.125606478018 0.302480906248
0.0435777576798 -0.125036834127 0.302480906248
0.0435777576798 -0.124467190236 0.302480906248
0.0435777576798 -0.123897546345 0.302480906248
0.0435777576798 -0.123327902453 0.302480906248
0.0435777576798 -0.122758258562 0.302480906248
0.0436482235032 -0.122386195313 0.302970021963
0.0437968019712 -0.122230290469 0.304001331329
0.0439463980117 -0.12207332781 0.305039703846
0.0440928652855 -0.136261177237 0.30210724473
0.0440928652855 -0.13569223704 0.30210724473
0.0440928652855 -0.135123296843 0.30210724473
0.0440928652855 -0.134554356645 0.30210724473
0.0440928652855 -0.133985416448 0.30210724473
0.0440929435797 -0.133416713154 0.302107781172
0.0440929435797 -0.132847771947 0.302107781172
0.0440929435797 -0.132278830739 0.302107781172
0.0440929435797 -0.131709889532 0.302107781172
0.0440929435797 -0.131140948324 0.302107781172
0.0440929435797 -0.130572007117 0.302107781172
0.0440929435797 -0.130003065909 0.302107781172
0.0440929435797 -0.129434124702 0.302107781172
0.0440929435797 -0.128865183494 0.302107781172
0.0440929435797 -0.128296242287 0.302107781172
0.0440929435797 -0.127727301079 0.302107781172
0.0440930218739 -0.127158585662 0.302108317614
0.0440930218739 -0.126589643444 0.302108317614
0.0440930218739 -0.126020701227 0.302108317614
0.0440930218739 -0.125451759009 0.302108317614
0.0440930218739 -0.124882816791 0.302108317614
0.0440930218739 -0.124313874574 0.302108317614
0.0440930218739 -0.123744932356 0.302108317614
0.0440930218739 -0.123175990138 0.302108317614
0.0440930218739 -0.12260704792 0.302108317614
0.0442188668105 -0.122386412011 0.302970558405
0.0443693918304 -0.122230518139 0.304001897573
0.0446067769817 -0.136093287734 0.301735013723
0.0446067769817 -0.135525048537 0.301735013723
0.0446067769817 -0.13495680934 0.301735013723
0.0446068562862 -0.134388809066 0.301735550165
0.0446068562862 -0.133820568859 0.301735550165
0.0446068562862 -0.133252328651 0.301735550165
0.0446068562862 -0.132684088444 0.301735550165
0.0446068562862 -0.132115848236 0.301735550165
0.0446068562862 -0.131547608029 0.301735550165
0.0446068562862 -0.130979367821 0.301735550165
0.0446068562862 -0.130411127614 0.301735550165
0.0446068562862 -0.129842887406 0.301735550165
0.0446068562862 -0.129274647199 0.301735550165
0.0446068562862 -0.128706406991 0.301735550165
0.0446069444023 -0.128138419907 0.301736146212
0.0446069444023 -0.127570178577 0.301736146212
0.0446069444023 -0.127001937247 0.301736146212
0.0446069444023 -0.126433695917 0.301736146212
0.0446069444023 -0.125865454587 0.301736146212
0.0446069444023 -0.125297213257 0.301736146212
0.0446069444023 -0.124728971927 0.301736146212
0.0446069444023 -0.124160730597 0.301736146212
0.0446069444023 -0.123592489267 0.301736146212
0.0446069444023 -0.123024247938 0.301736146212
0.0446069444023 -0.122456006608 0.301736146212
0.0447895914428 -0.122386845408 0.302971631289
0.0449420631269 -0.122230961498 0.304003000259
0.0451195053125 -0.135926056885 0.301364243031
0.0451195053125 -0.135358515937 0.301364243031
0.0451195053125 -0.13479097499 0.301364243031
0.0451195053125 -0.134223434043 0.301364243031
0.0451195053125 -0.133655893095 0.301364243031
0.0451195053125 -0.133088352148 0.301364243031
0.0451195053125 -0.132520811201 0.301364243031
0.0451195053125 -0.131953270253 0.301364243031
0.0451195053125 -0.131385729306 0.301364243031
0.0451195053125 -0.130818188359 0.301364243031
0.0451195053125 -0.130250647412 0.301364243031
0.0451195945511 -0.129683362955 0.301364839077
0.0451195945511 -0.129115820885 0.301364839077
0.0451195945511 -0.128548278815 0.301364839077
0.0451195945511 -0.127980736746 0.301364839077
0.0451195945511 -0.127413194676 0.301364839077
0.0451195945511 -0.126845652606 0.301364839077
0.0451195945511 -0.126278110536 0.301364839077
0.0451195945511 -0.125710568466 0.301364839077
0.0451195945511 -0.125143026396 0.301364839077
0.0451195945511 -0.124575484327 0.301364839077
0.0451195945511 -0.124007942257 0.301364839077
0.0451195945511 -0.123440400187 0.301364839077
0.0451195945511 -0.122872858117 0.301364839077
0.0452069591331 -0.122542134505 0.301948368549
0.0453603245781 -0.122387290843 0.302972733974
0.0456309049143 -0.135759027664 0.300993919373
0.0456309049143 -0.135192184125 0.300993919373
0.0456309049143 -0.134625340586 0.300993919373
0.0456309049143 -0.134058497046 0.300993919373
0.0456309049143 -0.133491653507 0.300993919373
0.0456309049143 -0.132924809968 0.300993919373
0.0456309049143 -0.132357966428 0.300993919373
0.0456309049143 -0.131791122889 0.300993919373
0.0456309049143 -0.13122427935 0.300993919373
0.0456309772032 -0.130657642799 0.30099439621
0.0456309772032 -0.130090798362 0.30099439621
0.0456309772032 -0.129523953925 0.30099439621
0.0456309772032 -0.128957109487 0.30099439621
0.0456309772032 -0.12839026505 0.30099439621
0.0456309772032 -0.127823420613 0.30099439621
0.0456309772032 -0.127256576175 0.30099439621
0.0456309772032 -0.126689731738 0.30099439621
0.0456309772032 -0.126122887301 0.30099439621
0.0456309772032 -0.125556042863 0.30099439621
0.0456309772032 -0.124989198426 0.30099439621
0.0456309772032 -0.124422353989 0.30099439621
0.0456309772032 -0.123855509551 0.30099439621
0.0456309772032 -0.123288665114 0.30099439621
0.0456309772032 -0.122721820677 0.30099439621
0.0457757672965 -0.122542582017 0.301949471235
0.0459310663846 -0.122387748317 0.302973866463
0.0461410377771 -0.135592374817 0.30062443018
0.0461410377771 -0.135026227115 0.30062443018
0.0461410377771 -0.134460079412 0.30062443018
0.0461410377771 -0.133893931709 0.30062443018
0.0461410377771 -0.133327784006 0.30062443018
0.0461410377771 -0.132761636303 0.30062443018
0.0461410377771 -0.132195488601 0.30062443018
0.0461411201123 -0.131629575781 0.300624966621
0.0461411201123 -0.131063427068 0.300624966621
0.0461411201123 -0.130497278354 0.300624966621
0.0461411201123 -0.129931129641 0.300624966621
0.0461411201123 -0.129364980928 0.300624966621
0.0461411201123 -0.128798832215 0.300624966621
0.0461411201123 -0.128232683502 0.300624966621
0.0461411201123 -0.127666534789 0.300624966621
0.0461411201123 -0.127100386076 0.300624966621
0.0461411201123 -0.126534237363 0.300624966621
0.0461411201123 -0.12596808865 0.300624966621
0.0461412024476 -0.125402163707 0.300625503063
0.0461412024476 -0.124836013984 0.300625503063
0.0461412024476 -0.124269864261 0.300625503063
0.0461412024476 -0.123703714537 0.300625503063
0.0461412024476 -0.123137564814 0.300625503063
0.0461412024476 -0.122571415091 0.300625503063
0.046344575039 -0.122543017434 0.301950544119
0.0465018033083 -0.122388181713 0.302974939346
0.0466499225063 -0.13542613867 0.300255864859
0.0466499225063 -0.134860685064 0.300255864859
0.0466499225063 -0.134295231457 0.300255864859
0.0466499225063 -0.133729777851 0.300255864859
0.0466499225063 -0.133164324245 0.300255864859
0.0466500058518 -0.132599107542 0.3002564013
0.0466500058518 -0.132033652926 0.3002564013
0.0466500058518 -0.13146819831 0.3002564013
0.0466500058518 -0.130902743693 0.3002564013
0.0466500058518 -0.130337289077 0.3002564013
0.0466500058518 -0.12977183446 0.3002564013
0.0466500058518 -0.129206379844 0.3002564013
0.0466500058518 -0.128640925228 0.3002564013
0.0466500058518 -0.128075470611 0.3002564013
0.0466500058518 -0.127510015995 0.3002564013
0.0466500058518 -0.126944561378 0.3002564013
0.0466500891972 -0.126379332553 0.300256937742
0.0466500891972 -0.125813876926 0.300256937742
0.0466500891972 -0.125248421299 0.300256937742
0.0466500891972 -0.124682965673 0.300256937742
0.0466500891972 -0.124117510046 0.300256937742
0.0466500891972 -0.123552054419 0.300256937742
0.0466500891972 -0.122986598793 0.300256937742
0.046755220257 -0.122697032553 0.300933599472
0.0469133034769 -0.122543235143 0.301951080561
0.0471575643215 -0.135260319221 0.29988822341
0.0471575643215 -0.134695557972 0.29988822341
0.0471576486772 -0.134131036657 0.299888759851
0.0471576486772 -0.133566274397 0.299888759851
0.0471576486772 -0.133001512138 0.299888759851
0.0471576486772 -0.132436749878 0.299888759851
0.0471576486772 -0.131871987618 0.299888759851
0.0471576486772 -0.131307225359 0.299888759851
0.0471576486772 -0.130742463099 0.299888759851
0.0471576486772 -0.130177700839 0.299888759851
0.0471576486772 -0.12961293858 0.299888759851
0.0471576486772 -0.12904817632 0.299888759851
0.0471576486772 -0.128483414061 0.299888759851
0.0471577330329 -0.127918880622 0.299889296293
0.0471577330329 -0.127354117352 0.299889296293
0.0471577330329 -0.126789354083 0.299889296293
0.0471577330329 -0.126224590813 0.299889296293
0.0471577330329 -0.125659827543 0.299889296293
0.0471577330329 -0.125095064273 0.299889296293
0.0471577330329 -0.124530301003 0.299889296293
0.0471577330329 -0.123965537733 0.299889296293
0.0471577330329 -0.123400774463 0.299889296293
0.0471577330329 -0.122836011194 0.299889296293
0.0473221189109 -0.122697469991 0.300934672356
0.0474821136047 -0.122543658465 0.301952123642
0.0476640443232 -0.135095131543 0.29952198267
0.0476640443232 -0.134531060013 0.29952198267
0.0476640443232 -0.133966988482 0.29952198267
0.0476640443232 -0.133402916952 0.29952198267
0.0476640443232 -0.132838845421 0.29952198267
0.0476640443232 -0.132274773891 0.29952198267
0.0476640443232 -0.13171070236 0.29952198267
0.0476640443232 -0.13114663083 0.29952198267
0.0476640443232 -0.1305825593 0.29952198267
0.0476640443232 -0.130018487769 0.29952198267
0.0476640443232 -0.129454416239 0.29952198267
0.0476641296891 -0.12889057555 0.299522519112
0.0476641296891 -0.128326503009 0.299522519112
0.0476641296891 -0.127762430469 0.299522519112
0.0476641296891 -0.127198357928 0.299522519112
0.0476641296891 -0.126634285387 0.299522519112
0.0476641296891 -0.126070212846 0.299522519112
0.0476641296891 -0.125506140306 0.299522519112
0.0476641296891 -0.124942067765 0.299522519112
0.0476641296891 -0.124377995224 0.299522519112
0.0476641296891 -0.123813922684 0.299522519112
0.0476641296891 -0.123249850143 0.299522519112
0.0477281968528 -0.122850684207 0.299925118685
0.0478890263484 -0.122697919579 0.300935775042
0.0480509418889 -0.122544118072 0.30195325613
0.0481692072699 -0.13493011861 0.29915612936
0.0481692072699 -0.134366736069 0.29915612936
0.0481692072699 -0.133803353527 0.29915612936
0.0481692072699 -0.133239970986 0.29915612936
0.0481692072699 -0.132676588445 0.29915612936
0.0481692072699 -0.132113205904 0.29915612936
0.0481692072699 -0.131549823363 0.29915612936
0.0481692072699 -0.130986440822 0.29915612936
0.0481692072699 -0.13042305828 0.29915612936
0.0481692936461 -0.129859908601 0.299156665802
0.0481692936461 -0.12929652505 0.299156665802
0.0481692936461 -0.128733141499 0.299156665802
0.0481692936461 -0.128169757947 0.299156665802
0.0481692936461 -0.127606374396 0.299156665802
0.0481692936461 -0.127042990844 0.299156665802
0.0481692936461 -0.126479607293 0.299156665802
0.0481692936461 -0.125916223742 0.299156665802
0.0481692936461 -0.12535284019 0.299156665802
0.0481692936461 -0.124789456639 0.299156665802
0.0481692936461 -0.124226073087 0.299156665802
0.0481693800223 -0.123662911285 0.299157202244
0.0481693800223 -0.123099526724 0.299157202244
0.0482931955386 -0.122851111458 0.299926161766
0.0484559331405 -0.122698357017 0.300936847925
0.0486731330273 -0.134765495492 0.298791140318
0.0486731330273 -0.134202800312 0.298791140318
0.0486731330273 -0.133640105133 0.298791140318
0.0486731330273 -0.133077409953 0.298791140318
0.0486731330273 -0.132514714774 0.298791140318
0.0486731330273 -0.131952019594 0.298791140318
0.0486731330273 -0.131389324415 0.298791140318
0.0486731330273 -0.130826629235 0.298791140318
0.0486732204138 -0.130264167928 0.29879167676
0.0486732204138 -0.129701471738 0.29879167676
0.0486732204138 -0.129138775549 0.29879167676
0.0486732204138 -0.128576079359 0.29879167676
0.0486732204138 -0.128013383169 0.29879167676
0.0486732204138 -0.127450686979 0.29879167676
0.0486732204138 -0.12688799079 0.29879167676
0.0486732204138 -0.1263252946 0.29879167676
0.0486732204138 -0.12576259841 0.29879167676
0.0486732204138 -0.12519990222 0.29879167676
0.0486733078002 -0.124637429801 0.298792213202
0.0486733078002 -0.124074732601 0.298792213202
0.0486733078002 -0.123512035401 0.298792213202
0.0487213266659 -0.12307063441 0.299086987972
0.0488568096792 -0.122848047459 0.299918681383
0.0490228439736 -0.122698794454 0.300937920809
0.0491758363002 -0.134601289073 0.298427075148
0.0491758363002 -0.134039279515 0.298427075148
0.0491758363002 -0.133477269958 0.298427075148
0.0491758363002 -0.1329152604 0.298427075148
0.0491758363002 -0.132353250842 0.298427075148
0.0491758363002 -0.131791241285 0.298427075148
0.0491759246969 -0.13122946762 0.298427611589
0.0491759246969 -0.130667457052 0.298427611589
0.0491759246969 -0.130105446484 0.298427611589
0.0491759246969 -0.129543435916 0.298427611589
0.0491759246969 -0.128981425348 0.298427611589
0.0491759246969 -0.12841941478 0.298427611589
0.0491759246969 -0.127857404212 0.298427611589
0.0491759246969 -0.127295393644 0.298427611589
0.0491759246969 -0.126733383076 0.298427611589
0.0491760081827 -0.126171586709 0.298428118229
0.0491760081827 -0.125609575187 0.298428118229
0.0491760081827 -0.125047563665 0.298428118229
0.0491760081827 -0.124485552143 0.298428118229
0.0491760081827 -0.12392354062 0.298428118229
0.0491760081827 -0.123361529098 0.298428118229
0.0493078076907 -0.123128639776 0.299227952957
0.0494450730624 -0.122906324469 0.30006095767
0.0495830161423 -0.122682548512 0.300898075104
0.0496773123741 -0.13443747247 0.298063874245
0.0496773123741 -0.133876146907 0.298063874245
0.0496773123741 -0.133314821343 0.298063874245
0.0496773123741 -0.132753495779 0.298063874245
0.0496773123741 -0.132192170216 0.298063874245
0.0496774017811 -0.131631081556 0.298064410686
0.0496774017811 -0.131069754982 0.298064410686
0.0496774017811 -0.130508428408 0.298064410686
0.0496774017811 -0.129947101834 0.298064410686
0.0496774017811 -0.12938577526 0.298064410686
0.0496774017811 -0.128824448687 0.298064410686
0.0496774017811 -0.128263122113 0.298064410686
0.0496774017811 -0.127701795539 0.298064410686
0.049677491188 -0.127140697786 0.298064947128
0.049677491188 -0.126579370202 0.298064947128
0.049677491188 -0.126018042618 0.298064947128
0.049677491188 -0.125456715034 0.298064947128
0.049677491188 -0.12489538745 0.298064947128
0.049677491188 -0.124334059866 0.298064947128
0.049677491188 -0.123772732282 0.298064947128
0.0497568200032 -0.123408158087 0.298540920019
0.0498949289322 -0.123186914934 0.299369573593
0.0500338971615 -0.122964662516 0.300203382969
0.050177571155 -0.134274059124 0.297701567411
0.050177571155 -0.133713415871 0.297701567411
0.050177571155 -0.133152772618 0.297701567411
0.0501776615722 -0.132592368289 0.297702103853
0.0501776615722 -0.132031724025 0.297702103853
0.0501776615722 -0.131471079762 0.297702103853
0.0501776615722 -0.130910435499 0.297702103853
0.0501776615722 -0.130349791235 0.297702103853
0.0501776615722 -0.129789146972 0.297702103853
0.0501776615722 -0.129228502708 0.297702103853
0.0501777469663 -0.128668077416 0.297702610493
0.0501777469663 -0.128107432199 0.297702610493
0.0501777469663 -0.127546786981 0.297702610493
0.0501777469663 -0.126986141764 0.297702610493
0.0501777469663 -0.126425496546 0.297702610493
0.0501777469663 -0.125864851329 0.297702610493
0.0501777469663 -0.125304206111 0.297702610493
0.0501777469663 -0.124743560894 0.297702610493
0.0501777469663 -0.124182915676 0.297702610493
0.0501777469663 -0.123622270459 0.297702610493
0.050342803593 -0.123466428924 0.298681885004
0.0504826087007 -0.123245251409 0.299511343241
0.0506767040424 -0.134111277549 0.297340661287
0.0506767040424 -0.133551313968 0.297340661287
0.0506767040424 -0.132991350387 0.297340661287
0.0506767040424 -0.132431386807 0.297340661287
0.0506767040424 -0.131871423226 0.297340661287
0.0506767040424 -0.131311459646 0.297340661287
0.0506767040424 -0.130751496065 0.297340661287
0.0506767954698 -0.130191767367 0.297341197729
0.0506767954698 -0.129631802776 0.297341197729
0.0506767954698 -0.129071838186 0.297341197729
0.0506767954698 -0.128511873595 0.297341197729
0.0506767954698 -0.127951909004 0.297341197729
0.0506767954698 -0.127391944413 0.297341197729
0.0506767954698 -0.126831979822 0.297341197729
0.0506767954698 -0.126272015231 0.297341197729
0.0506767954698 -0.125712050641 0.297341197729
0.0506767954698 -0.12515208605 0.297341197729
0.0506767954698 -0.124592121459 0.297341197729
0.0506767954698 -0.124032156868 0.297341197729
0.0507885350683 -0.123744441796 0.297996819019
0.0509293435208 -0.123524761357 0.298822999001
0.0510710205343 -0.123304066152 0.299654275179
0.0511745392098 -0.133948657276 0.296980112791
0.0511745392098 -0.133389372694 0.296980112791
0.0511745392098 -0.132830088113 0.296980112791
0.0511745392098 -0.132270803531 0.296980112791
0.0511745392098 -0.13171151895 0.296980112791
0.051174626512 -0.13115245811 0.296980619431
0.051174626512 -0.130593172574 0.296980619431
0.051174626512 -0.130033887039 0.296980619431
0.051174626512 -0.129474601503 0.296980619431
0.051174626512 -0.128915315967 0.296980619431
0.051174626512 -0.128356030432 0.296980619431
0.051174626512 -0.127796744896 0.296980619431
0.051174626512 -0.127237459361 0.296980619431
0.051174626512 -0.126678173825 0.296980619431
0.051174626512 -0.126118888289 0.296980619431
0.051174626512 -0.125559602754 0.296980619431
0.051174626512 -0.125000317218 0.296980619431
0.051174626512 -0.124441031682 0.296980619431
0.0512323230505 -0.124021415909 0.297315448523
0.051373937625 -0.123802767719 0.298137277365
0.0515166203686 -0.123583586567 0.29896530509
0.0516711617425 -0.133786413377 0.29662039876
0.0516711617425 -0.133227806223 0.29662039876
0.0516712551905 -0.132669439003 0.296620935202
0.0516712551905 -0.132110830838 0.296620935202
0.0516712551905 -0.131552222674 0.296620935202
0.0516712551905 -0.13099361451 0.296620935202
0.0516712551905 -0.130435006346 0.296620935202
0.0516712551905 -0.129876398182 0.296620935202
0.0516712551905 -0.129317790017 0.296620935202
0.0516712551905 -0.128759181853 0.296620935202
0.0516712551905 -0.128200573689 0.296620935202
0.0516712551905 -0.127641965525 0.296620935202
0.0516712551905 -0.12708335736 0.296620935202
0.0516712551905 -0.126524749196 0.296620935202
0.0516712551905 -0.125966141032 0.296620935202
0.0516712551905 -0.125407532868 0.296620935202
0.0516713434469 -0.12484913795 0.296621441841
0.0516713434469 -0.124290528832 0.296621441841
0.0518166809825 -0.124079944191 0.297455757856
0.0519600768772 -0.123861588664 0.298278927803
0.0521043605275 -0.123642239306 0.299107193947
0.0521666813088 -0.133624814689 0.29626211524
0.0521666813088 -0.133066882269 0.29626211524
0.0521666813088 -0.132508949848 0.29626211524
0.0521666813088 -0.131951017428 0.29626211524
0.0521666813088 -0.131393085008 0.29626211524
0.0521666813088 -0.130835152587 0.29626211524
0.0521666813088 -0.130277220167 0.29626211524
0.0521666813088 -0.129719287746 0.29626211524
0.0521666813088 -0.129161355326 0.29626211524
0.0521666813088 -0.128603422906 0.29626211524
0.0521666813088 -0.128045490485 0.29626211524
0.0521666813088 -0.127487558065 0.29626211524
0.0521666813088 -0.126929625644 0.29626211524
0.0521666813088 -0.126371693224 0.29626211524
0.0521667705193 -0.125813975958 0.29626262188
0.0521667705193 -0.125256042584 0.29626262188
0.0521667705193 -0.124698109209 0.29626262188
0.0522573192072 -0.124355652659 0.296776860952
0.0524015988727 -0.124138547062 0.297596246004
0.0525466814328 -0.123920248727 0.298420190811
0.0526609097497 -0.133463363863 0.295904159546
0.0526609097497 -0.132906105559 0.295904159546
0.0526609097497 -0.132348847255 0.295904159546
0.0526609097497 -0.13179158895 0.295904159546
0.0526609097497 -0.131234330646 0.295904159546
0.0526609097497 -0.130677072342 0.295904159546
0.0526609097497 -0.130119814038 0.295904159546
0.0526609097497 -0.129562555733 0.295904159546
0.0526609097497 -0.129005297429 0.295904159546
0.0526609097497 -0.128448039125 0.295904159546
0.0526609097497 -0.127890780821 0.295904159546
0.0526609097497 -0.127333522516 0.295904159546
0.0526609999143 -0.126776481275 0.295904666185
0.0526609999143 -0.126219222017 0.295904666185
0.0526609999143 -0.125661962759 0.295904666185
0.0526609999143 -0.1251047035 0.295904666185
0.0527404933158 -0.124735452445 0.296351343393
0.0528430635646 -0.124418853366 0.296927690506
0.0529870671236 -0.12419719966 0.297736853361
0.0531539453962 -0.133302302852 0.295547068119
0.0531539453962 -0.132745717037 0.295547068119
0.0531539453962 -0.132189131221 0.295547068119
0.0531539453962 -0.131632545405 0.295547068119
0.0531539453962 -0.13107595959 0.295547068119
0.0531539453962 -0.130519373774 0.295547068119
0.0531539453962 -0.129962787958 0.295547068119
0.0531539453962 -0.129406202143 0.295547068119
0.0531539453962 -0.128849616327 0.295547068119
0.0531540418749 -0.128293263373 0.295547604561
0.0531540418749 -0.127736676547 0.295547604561
0.0531540418749 -0.127180089722 0.295547604561
0.0531540418749 -0.126623502896 0.295547604561
0.0531540418749 -0.12606691607 0.295547604561
0.0531540418749 -0.125510329244 0.295547604561
0.0532566630571 -0.125194982789 0.296118199825
0.0533601525476 -0.124879519313 0.296693623066
0.0534641405115 -0.124563049883 0.297271817923
0.0535684393512 -0.124245123731 0.297851741314
0.0536457931311 -0.133141631657 0.29519084096
0.0536457931311 -0.132585716702 0.29519084096
0.0536457931311 -0.132029801747 0.29519084096
0.0536457931311 -0.131473886793 0.29519084096
0.0536457931311 -0.130917971838 0.29519084096
0.0536457931311 -0.130362056883 0.29519084096
0.05364589062 -0.129806377821 0.295191377401
0.05364589062 -0.129250461857 0.295191377401
0.05364589062 -0.128694545892 0.295191377401
0.05364589062 -0.128138629927 0.295191377401
0.05364589062 -0.127582713962 0.295191377401
0.05364589062 -0.127026797997 0.295191377401
0.05364589062 -0.126470882032 0.295191377401
0.0536679231234 -0.125966679663 0.295312613249
0.0537720196609 -0.125653786876 0.295885413885
0.0538764303294 -0.12533946745 0.296459943056
0.0539813446909 -0.125024150657 0.297037243843
0.0540865677674 -0.124707371277 0.297616243362
0.0541364578372 -0.132981350277 0.294835478067
0.0541364578372 -0.132426104556 0.294835478067
0.0541364578372 -0.131870858834 0.294835478067
0.0541364578372 -0.131315613113 0.294835478067
0.0541365508643 -0.130760592088 0.294835984707
0.0541365508643 -0.130205345412 0.294835984707
0.0541365508643 -0.129650098736 0.294835984707
0.0541365508643 -0.129094852061 0.294835984707
0.0541365508643 -0.128539605385 0.294835984707
0.0541365508643 -0.12798435871 0.294835984707
0.0541365508643 -0.127429112034 0.294835984707
