-0.147325767074 0.172617744255 0.671501994133
-0.147394591862 0.173963574086 0.671815693378
-0.147464057427 0.175311347242 0.672132313251
-0.147698307554 0.176857630075 0.673200011253
-0.147978955238 0.178463890223 0.674479186535
-0.146812909235 0.165879520824 0.674958050251
-0.146584183314 0.166890217367 0.673906505108
-0.146355548147 0.167897057399 0.672855377197
-0.146187186578 0.168969605265 0.67208135128
-0.146122414177 0.170159867591 0.671783566475
-0.146057667705 0.171349038737 0.671485900879
-0.146061168215 0.172617744255 0.671501994133
-0.146129402232 0.173963574086 0.671815693378
-0.146197714038 0.175310678738 0.672129750252
-0.146429927504 0.176856925427 0.673197329044
-0.146708166195 0.178463180523 0.674476504326
-0.145541801796 0.165879520824 0.674958050251
-0.145315056186 0.166890217367 0.673906505108
-0.145088400544 0.167897057399 0.672855377197
-0.144921496651 0.168969605265 0.67208135128
-0.14485728505 0.170159867591 0.671783566475
-0.144793099154 0.171349038737 0.671485900879
-0.144795990989 0.17261705476 0.671499311924
-0.144864212602 0.173963574086 0.671815693378
-0.144931932964 0.175310678738 0.672129750252
-0.145162135924 0.176856925427 0.673197329044
-0.145437965622 0.178463180523 0.674476504326
-0.144270694357 0.165879520824 0.674958050251
-0.144045929058 0.166890217367 0.673906505108
-0.143821252941 0.167897057399 0.672855377197
-0.143655806724 0.168969605265 0.67208135128
-0.143592155923 0.170159867591 0.671783566475
-0.143528530602 0.171349038737 0.671485900879
-0.143531397181 0.17261705476 0.671499311924
-0.143598449657 0.17396287954 0.671813011169
-0.14366615189 0.175310678738 0.672129750252
-0.143893771028 0.176856220779 0.673194646835
-0.144167178993 0.178462455053 0.674473762512
-0.142999586918 0.165879520824 0.674958050251
-0.14277680193 0.166890217367 0.673906505108
-0.142554105338 0.167897057399 0.672855377197
-0.142390116797 0.168969605265 0.67208135128
-0.142327026796 0.170159867591 0.671783566475
-0.142263962051 0.171349038737 0.671485900879
-0.142266803374 0.17261705476 0.671499311924
-0.142333265078 0.17396287954 0.671813011169
-0.142399789923 0.175309963594 0.672127008438
-0.142625984499 0.176856220779 0.673194646835
-0.142896415318 0.178461745353 0.674471080303
-0.141728479478 0.165879520824 0.674958050251
-0.141507674801 0.166890217367 0.673906505108
-0.141286957735 0.167897057399 0.672855377197
-0.141123863656 0.168968930925 0.672078669071
-0.141061897668 0.170159867591 0.671783566475
-0.140999393499 0.171349038737 0.671485900879
-0.141001646353 0.172616365266 0.671496629715
-0.1410680805 0.17396287954 0.671813011169
-0.141134014013 0.175309963594 0.672127008438
-0.141357634757 0.176855516131 0.673191964626
-0.14162622496 0.178461745353 0.674471080303
-0.140457942605 0.16588019466 0.674960792065
-0.140238547673 0.166890217367 0.673906505108
-0.140020380698 0.167897741561 0.672858119011
-0.13985817878 0.168968930925 0.672078669071
-0.139796185572 0.170159158004 0.671780765057
-0.139734824947 0.171349038737 0.671485900879
-0.139737057596 0.172616365266 0.671496629715
-0.139802337759 0.173962184994 0.67181032896
-0.139868238102 0.175309963594 0.672127008438
-0.140089282713 0.176854795824 0.673189222813
-0.14035547644 0.178461035654 0.674468398094
-0.139186830002 0.16588019466 0.674960792065
-0.138969420545 0.166890217367 0.673906505108
-0.138753227932 0.167897741561 0.672858119011
-0.138592493905 0.168968930925 0.672078669071
-0.138531061721 0.170159158004 0.671780765057
-0.138470256396 0.171349038737 0.671485900879
-0.13847246884 0.172616365266 0.671496629715
-0.138537158232 0.173962184994 0.67181032896
-0.138602462192 0.175309963594 0.672127008438
-0.138821506399 0.176854795824 0.673189222813
-0.139085291132 0.178461035654 0.674468398094
-0.137915717399 0.16588019466 0.674960792065
-0.137700293417 0.166890217367 0.673906505108
-0.137486075165 0.167897741561 0.672858119011
-0.137326809029 0.168968930925 0.672078669071
-0.137265937869 0.170159158004 0.671780765057
-0.137205139785 0.171348354293 0.67148321867
-0.137207880083 0.172616365266 0.671496629715
-0.137271978705 0.173962184994 0.67181032896
-0.137336138222 0.175309263998 0.672124326229
-0.137553194205 0.176854106834 0.673186600208
-0.137814569945 0.178460341726 0.67446577549
-0.136644604797 0.16588019466 0.674960792065
-0.136431166288 0.166890217367 0.673906505108
-0.136218922399 0.167897741561 0.672858119011
-0.136061124153 0.168968930925 0.672078669071
-0.136000814018 0.170159158004 0.671780765057
-0.135940576284 0.171348354293 0.67148321867
-0.135942760385 0.172615691093 0.671494007111
-0.136006799177 0.173962184994 0.67181032896
-0.136070367363 0.175309263998 0.672124326229
-0.136285422829 0.176854106834 0.673186600208
-0.136544389577 0.178460341726 0.67446577549
-0.135373492194 0.16588019466 0.674960792065
-0.13516203916 0.166890217367 0.673906505108
-0.134951769632 0.167897741561 0.672858119011
-0.134795439277 0.168968930925 0.672078669071
-0.134735690167 0.170159158004 0.671780765057
-0.134676012784 0.171348354293 0.67148321867
-0.134678176567 0.172615691093 0.671494007111
-0.134741093648 0.173961505883 0.671807706356
-0.134804596504 0.175309263998 0.672124326229
-0.135017101542 0.176853386527 0.673183858395
-0.135273647342 0.178459600484 0.674462974072
-0.134102379591 0.16588019466 0.674960792065
-0.133892912032 0.166890217367 0.673906505108
-0.133684616866 0.167897741561 0.672858119011
-0.133529754401 0.168968930925 0.672078669071
-0.133470566315 0.170159158004 0.671780765057
-0.133411449284 0.171348354293 0.67148321867
-0.13341359275 0.172615691093 0.671494007111
-0.133475919059 0.173961505883 0.671807706356
-0.133538292738 0.175308564401 0.67212164402
-0.133749335331 0.176853386527 0.673183858395
-0.13400347225 0.178459600484 0.674462974072
-0.132831266988 0.16588019466 0.674960792065
-0.132623784904 0.166890217367 0.673906505108
-0.132417464099 0.167897741561 0.672858119011
-0.132264069525 0.168968930925 0.672078669071
-0.132205442464 0.170159158004 0.671780765057
-0.132146885783 0.171348354293 0.67148321867
-0.132148481078 0.172615001599 0.671491324902
-0.132210744471 0.173961505883 0.671807706356
-0.132272526931 0.175308564401 0.67212164402
-0.132481041264 0.176852681879 0.673181176186
-0.132732769303 0.178458890785 0.674460291862
-0.131560154385 0.16588019466 0.674960792065
-0.131355180579 0.166890881605 0.673909187317
-0.131150311333 0.167897741561 0.672858119011
-0.130997873464 0.168968271569 0.672076046467
-0.130940318613 0.170159158004 0.671780765057
-0.130882322283 0.171348354293 0.67148321867
-0.130883902311 0.172615001599 0.671491324902
-0.130945023844 0.173960780469 0.671804904938
-0.131006761123 0.175308564401 0.67212164402
-0.131213280104 0.176852681879 0.673181176186
-0.131462599261 0.178458890785 0.674460291862
-0.130289041783 0.16588019466 0.674960792065
-0.130086048399 0.166890881605 0.673909187317
-0.129883158566 0.167897741561 0.672858119011
-0.129732193527 0.168968271569 0.672076046467
-0.129674688515 0.17015849371 0.671778142452
-0.129617758783 0.171348354293 0.67148321867
-0.129619323545 0.172615001599 0.671491324902
-0.129679854531 0.173960780469 0.671804904938
-0.129740995315 0.175308564401 0.67212164402
-0.129945012697 0.17685199289 0.673178553581
-0.130191899962 0.178458165314 0.674457550049
-0.12901792918 0.16588019466 0.674960792065
-0.12881691622 0.166890881605 0.673909187317
-0.1286160058 0.167897741561 0.672858119011
-0.12846651359 0.168968271569 0.672076046467
-0.128409569602 0.17015849371 0.671778142452
-0.128352682582 0.17134766985 0.671480536461
-0.128354744779 0.172615001599 0.671491324902
-0.128414685219 0.173960780469 0.671804904938
-0.128474716806 0.175307864804 0.672118961811
-0.128677256476 0.17685199289 0.673178553581
-0.128921735085 0.178458165314 0.674457550049
-0.127746816577 0.16588019466 0.674960792065
-0.12754778404 0.166890881605 0.673909187317
-0.127348853033 0.167897741561 0.672858119011
-0.127200833653 0.168968271569 0.672076046467
-0.12714445069 0.17015849371 0.671778142452
-0.127088124132 0.17134766985 0.671480536461
-0.127089647082 0.172614296782 0.671488583088
-0.127149515906 0.173960780469 0.671804904938
-0.127208956049 0.175307864804 0.672118961811
-0.127408970042 0.176851256924 0.673175752163
-0.127651062557 0.178457455615 0.67445486784
-0.126475703974 0.16588019466 0.674960792065
-0.126278651861 0.166890881605 0.673909187317
-0.126081700267 0.167897741561 0.672858119011
-0.125935153716 0.168968271569 0.672076046467
-0.125879331778 0.17015849371 0.671778142452
-0.125823565683 0.17134766985 0.671480536461
-0.125825073479 0.172614296782 0.671488583088
-0.125883855164 0.173960101358 0.671802282333
-0.125943195292 0.175307864804 0.672118961811
-0.126141219096 0.176851256924 0.673175752163
-0.126380902731 0.178457455615 0.67445486784
-0.125204591372 0.16588019466 0.674960792065
-0.125009519681 0.166890881605 0.673909187317
-0.1248145475 0.167897741561 0.672858119011
-0.12466947378 0.168968271569 0.672076046467
-0.124614212865 0.17015849371 0.671778142452
-0.124559007234 0.17134766985 0.671480536461
-0.124560499876 0.172614296782 0.671488583088
-0.124618690791 0.173960101358 0.671802282333
-0.124676936988 0.175307165207 0.672116279602
-0.124872970604 0.176850552276 0.673173069954
-0.125110245357 0.178456745915 0.674452185631
-0.123933478769 0.16588019466 0.674960792065
-0.123740387502 0.166890881605 0.673909187317
-0.123547394734 0.167897741561 0.672858119011
-0.123403793843 0.168968271569 0.672076046467
-0.123349093953 0.17015849371 0.671778142452
-0.123294448785 0.17134766985 0.671480536461
-0.123295433777 0.172613607288 0.671485900879
-0.123353526417 0.173960101358 0.671802282333
-0.123411181283 0.175307165207 0.672116279602
-0.123605224709 0.176850552276 0.673173069954
-0.123839587142 0.178456020445 0.674449443817
-0.122662366166 0.16588019466 0.674960792065
-0.122471255322 0.166890881605 0.673909187317
-0.122280241967 0.167897741561 0.672858119011
-0.122137604797 0.168967567258 0.672073245049
-0.122083975041 0.17015849371 0.671778142452
-0.122029890336 0.17134766985 0.671480536461
-0.122030865226 0.172613607288 0.671485900879
-0.122087874599 0.173959406812 0.671799600124
-0.122145425577 0.175307165207 0.672116279602
-0.122337002202 0.176849863287 0.67317044735
-0.12256943753 0.178456020445 0.674449443817
-0.121391253563 0.16588019466 0.674960792065
-0.121202123143 0.166890881605 0.673909187317
-0.121013571594 0.167898410851 0.67286080122
-0.120871930136 0.168967567258 0.672073245049
-0.120818856128 0.17015849371 0.671778142452
-0.120765331887 0.17134766985 0.671480536461
-0.120766296674 0.172613607288 0.671485900879
-0.120822715277 0.173959406812 0.671799600124
-0.120879187478 0.17530646561 0.672113597393
-0.121069261246 0.176849863287 0.67317044735
-0.121298805525 0.178455310746 0.674446761608
-0.120120618303 0.165880853847 0.674963474274
-0.119932990963 0.166890881605 0.673909187317
-0.119746413776 0.167898410851 0.67286080122
-0.119606255475 0.168967567258 0.672073245049
-0.119553259874 0.170157814318 0.671775460243
-0.119500773438 0.17134766985 0.671480536461
-0.119501728123 0.172613607288 0.671485900879
-0.119557555954 0.173959406812 0.671799600124
-0.119613436824 0.17530646561 0.672113597393
-0.119801042949 0.176849158639 0.673167765141
-0.120028660964 0.178455310746 0.674446761608
-0.118849500649 0.165880853847 0.674963474274
-0.118663858784 0.166890881605 0.673909187317
-0.118479255959 0.167898410851 0.67286080122
-0.118340580814 0.168967567258 0.672073245049
-0.118288146013 0.170157814318 0.671775460243
-0.118235742698 0.171346985407 0.671477854252
-0.11823668728 0.172612917794 0.67148321867
-0.118292396632 0.173959406812 0.671799600124
-0.11834768617 0.17530646561 0.672113597393
-0.118533307045 0.176849158639 0.673167765141
-0.118758044113 0.178454601046 0.674444079399
-0.117578382995 0.165880853847 0.674963474274
-0.117394726604 0.166890881605 0.673909187317
-0.117212098141 0.167898410851 0.67286080122
-0.117074906153 0.168967567258 0.672073245049
-0.117023032152 0.170157814318 0.671775460243
-0.1169711893 0.171346985407 0.671477854252
-0.11697212378 0.172612917794 0.67148321867
-0.11702677007 0.173958712266 0.671796917915
-0.117081935516 0.17530646561 0.672113597393
-0.117265093517 0.176848438332 0.673165023327
-0.117487904603 0.178454601046 0.674444079399
-0.116307265341 0.165880853847 0.674963474274
-0.116125594425 0.166890881605 0.673909187317
-0.115944940323 0.167898410851 0.67286080122
-0.115809231491 0.168967567258 0.672073245049
-0.11575791829 0.170157814318 0.671775460243
-0.115706635902 0.171346985407 0.671477854252
-0.115707560279 0.172612917794 0.67148321867
-0.115761615799 0.173958712266 0.671796917915
-0.115815722673 0.175305766013 0.672110915184
-0.115996900588 0.176847733684 0.673162341118
-0.116217292635 0.178453875576 0.674441337585
-0.115036147687 0.165880853847 0.674963474274
-0.114856462245 0.166890881605 0.673909187317
-0.114677782505 0.167898410851 0.67286080122
-0.11454355683 0.168967567258 0.672073245049
-0.114492804429 0.170157814318 0.671775460243
-0.114442082504 0.171346985407 0.671477854252
-0.114442539642 0.172612228299 0.671480536461
-0.114496461528 0.173958712266 0.671796917915
-0.11454997707 0.175305766013 0.672110915184
-0.114729174899 0.176847733684 0.673162341118
-0.114947158289 0.178453875576 0.674441337585
-0.113765030033 0.165880853847 0.674963474274
-0.113587330066 0.166890881605 0.673909187317
-0.113410624688 0.167898410851 0.67286080122
-0.113277882169 0.168967567258 0.672073245049
-0.113227690568 0.170157814318 0.671775460243
-0.113177529106 0.171346985407 0.671477854252
-0.113177981193 0.172612228299 0.671480536461
-0.113230855171 0.173958017721 0.671794235706
-0.113284231467 0.175305766013 0.672110915184
-0.11346097703 0.176846997718 0.6731595397
-0.113676571857 0.178453165876 0.674438655376
-0.112493912379 0.165880853847 0.674963474274
-0.112318654855 0.166891560604 0.673911929131
-0.11214346687 0.167898410851 0.67286080122
-0.112011770407 0.168966907903 0.672070622444
-0.111962576707 0.170157814318 0.671775460243
-0.111912975709 0.171346985407 0.671477854252
-0.111913422743 0.172612228299 0.671480536461
-0.111965705951 0.173958017721 0.671794235706
-0.112018028895 0.17530505087 0.67210817337
-0.112193256617 0.176846997718 0.6731595397
-0.112406442563 0.178453165876 0.674438655376
-0.111222794725 0.165880853847 0.674963474274
-0.111049517512 0.166891560604 0.673911929131
-0.110876309052 0.167898410851 0.67286080122
-0.110746100685 0.168966907903 0.672070622444
-0.110697462846 0.170157814318 0.671775460243
-0.110648422311 0.171346985407 0.671477854252
-0.110648864294 0.172612228299 0.671480536461
-0.110700556731 0.173958017721 0.671794235706
-0.110752288456 0.17530505087 0.67210817337
-0.110925104041 0.176846308728 0.673156917095
-0.111135861463 0.178452440406 0.674435913563
-0.109951677071 0.165880853847 0.674963474274
-0.109780380169 0.166891560604 0.673911929131
-0.109609151235 0.167898410851 0.67286080122
-0.109480430963 0.168966907903 0.672070622444
-0.109431912053 0.170157134926 0.671772778034
-0.109383868913 0.171346985407 0.671477854252
-0.109383868913 0.172611538805 0.671477854252
-0.109434970579 0.173957323175 0.671791553497
-0.109486548016 0.17530505087 0.67210817337
-0.109657388566 0.176846308728 0.673156917095
-0.109865737332 0.178452440406 0.674435913563
-0.108680559417 0.165880853847 0.674963474274
-0.108511242826 0.166891560604 0.673911929131
-0.108341993417 0.167898410851 0.67286080122
-0.108214761241 0.168966907903 0.672070622444
-0.108166803243 0.170157134926 0.671772778034
-0.108118883634 0.171346300964 0.671475172043
-0.108119315515 0.172611538805 0.671477854252
-0.108169826411 0.173957323175 0.671791553497
-0.108220807577 0.17530505087 0.67210817337
-0.10838924121 0.17684560408 0.673154234886
-0.10859518132 0.178451730707 0.674433231354
-0.107409441763 0.165880853847 0.674963474274
-0.107242105483 0.166891560604 0.673911929131
-0.107074835599 0.167898410851 0.67286080122
-0.106949091519 0.168966907903 0.672070622444
-0.106901694433 0.170157134926 0.671772778034
-0.106854335287 0.171346300964 0.671475172043
-0.106854762117 0.172611538805 0.671477854252
-0.106904682242 0.173957323175 0.671791553497
-0.106954659277 0.175304382366 0.672105610371
-0.107121530787 0.17684560408 0.673154234886
-0.10732463541 0.178451021007 0.674430549145
-0.106138324109 0.165880853847 0.674963474274
-0.10597296814 0.166891560604 0.673911929131
-0.105807677781 0.167898410851 0.67286080122
-0.105683421797 0.168966907903 0.672070622444
-0.105636585623 0.170157134926 0.671772778034
-0.105589786941 0.171346300964 0.671475172043
-0.105589786941 0.17261084931 0.671475172043
-0.105639538073 0.173957323175 0.671791553497
-0.105688923665 0.175304382366 0.672105610371
-0.105853398585 0.176844899432 0.673151552677
-0.106054521382 0.178451021007 0.674430549145
-0.104867206455 0.165880853847 0.674963474274
-0.104703830797 0.166891560604 0.673911929131
-0.104540519964 0.167898410851 0.67286080122
-0.104417752075 0.168966907903 0.672070622444
-0.104371476813 0.170157134926 0.671772778034
-0.104325238594 0.171346300964 0.671475172043
-0.104325238594 0.17261084931 0.671475172043
-0.104373977178 0.173956628629 0.671788871288
-0.104423188052 0.175304382366 0.672105610371
-0.104585693213 0.176844899432 0.673151552677
-0.104783981365 0.178450295537 0.674427807331
-0.103596088801 0.165880853847 0.674963474274
-0.103434693454 0.166891560604 0.673911929131
-0.103273362146 0.167898410851 0.67286080122
-0.103152082353 0.168966907903 0.672070622444
-0.103106368003 0.170157134926 0.671772778034
-0.103060690248 0.171346300964 0.671475172043
-0.103060690248 0.17261084931 0.671475172043
-0.10310883806 0.173956628629 0.671788871288
-0.103157031615 0.175303667222 0.672102868557
-0.103317576164 0.176844194784 0.673148870468
-0.1035138725 0.178450295537 0.674427807331
-0.102324971147 0.165880853847 0.674963474274
-0.102165556111 0.166891560604 0.673911929131
-0.102006610953 0.16789908014 0.672863483429
-0.101886006006 0.168966233562 0.672067940235
-0.101841259194 0.170157134926 0.671772778034
-0.101796141901 0.171346300964 0.671475172043
-0.101796141901 0.17261084931 0.671475172043
-0.101843698943 0.173956628629 0.671788871288
-0.101891301165 0.175303667222 0.672102868557
-0.102049875843 0.176844194784 0.673148870468
-0.10224335701 0.178449585837 0.674425125122
-0.101053853493 0.165880853847 0.674963474274
-0.100896418768 0.166891560604 0.673911929131
-0.100739448084 0.16789908014 0.672863483429
-0.100620341335 0.168966233562 0.672067940235
-0.10057574881 0.170156455534 0.671770095825
-0.100531593554 0.171346300964 0.671475172043
-0.100531191981 0.172610159816 0.671472489834
-0.100578158252 0.173955934084 0.671786189079
-0.100625570716 0.175303667222 0.672102868557
-0.100781773948 0.176843490136 0.673146188259
-0.100973253196 0.178449585837 0.674425125122
-0.0997831499846 0.165881542331 0.674966275692
-0.0996272814251 0.166891560604 0.673911929131
-0.099472285215 0.16789908014 0.672863483429
-0.0993546766638 0.168966233562 0.672067940235
-0.0993106450514 0.170156455534 0.671770095825
-0.0992670452078 0.171346300964 0.671475172043
-0.0992666486854 0.172610159816 0.671472489834
-0.0993130241859 0.173955934084 0.671786189079
-0.0993598402669 0.175303667222 0.672102868557
-0.0995140786786 0.176843490136 0.673146188259
-0.0997027440484 0.178448860367 0.674422383308
-0.0985120270549 0.165881542331 0.674966275692
-0.0983581440821 0.166891560604 0.673911929131
-0.098205122346 0.16789908014 0.672863483429
-0.0980890119929 0.168966233562 0.672067940235
-0.0980455412928 0.170156455534 0.671770095825
-0.0980021053901 0.171345616521 0.671472489834
-0.0980021053901 0.172610159816 0.671472489834
-0.0980478901199 0.173955934084 0.671786189079
-0.0980937183465 0.175302967626 0.672100186348
-0.0982459832383 0.176842769829 0.673143446445
-0.0984326453981 0.178448860367 0.674422383308
-0.0972409041251 0.165881542331 0.674966275692
-0.0970890067391 0.166891560604 0.673911929131
-0.0969379594771 0.16789908014 0.672863483429
-0.096823347322 0.168966233562 0.672067940235
-0.0967804375341 0.170156455534 0.671770095825
-0.0967375620947 0.171345616521 0.671472489834
-0.0967375620947 0.172610159816 0.671472489834
-0.0967827560538 0.173955934084 0.671786189079
-0.0968279929484 0.175302967626 0.672100186348
-0.096978293132 0.176842769829 0.673143446445
-0.0971621603279 0.178448150668 0.674419701099
-0.0959697811954 0.165881542331 0.674966275692
-0.0958198693962 0.166891560604 0.673911929131
-0.0956707966081 0.16789908014 0.672863483429
-0.0955576826511 0.168966233562 0.672067940235
-0.0955153337755 0.170156455534 0.671770095825
-0.0954730187993 0.171345616521 0.671472489834
-0.0954726459055 0.172609485644 0.671469867229
-0.0955172490939 0.173955254972 0.671783566475
-0.0955622675504 0.175302967626 0.672100186348
-0.095710221657 0.176842065181 0.673140764236
-0.0958920667288 0.178448150668 0.674419701099
-0.0946986582656 0.165881542331 0.674966275692
-0.094551100008 0.166892210081 0.673914551735
-0.0944036337391 0.16789908014 0.672863483429
-0.0942920179803 0.168966233562 0.672067940235
-0.0942502300169 0.170156455534 0.671770095825
-0.094208475504 0.171345616521 0.671472489834
-0.0942081075491 0.172609485644 0.671469867229
-0.0942521199668 0.173955254972 0.671783566475
-0.0942961491097 0.175302236936 0.67209738493
-0.0944421602845 0.176841360533 0.673138082027
-0.0946215968123 0.178447440968 0.67441701889
-0.0934275353359 0.165881542331 0.674966275692
-0.093281957726 0.166892210081 0.673914551735
-0.0931364708701 0.16789908014 0.672863483429
-0.0930263533094 0.168966233562 0.672067940235
-0.0929851262583 0.170156455534 0.671770095825
-0.0929439322086 0.171345616521 0.671472489834
-0.0929435691928 0.172609485644 0.671469867229
-0.0929869908397 0.173955254972 0.671783566475
-0.0930304289874 0.175302236936 0.67209738493
-0.0931744802806 0.176841360533 0.673138082027
-0.0933515082645 0.178447440968 0.67441701889
-0.0921564124062 0.165881542331 0.674966275692
-0.092012815444 0.166892210081 0.673914551735
-0.0918693080011 0.16789908014 0.672863483429
-0.0917603224235 0.168965559221 0.672065258026
-0.0917200224997 0.170156455534 0.671770095825
-0.0916793889133 0.171345616521 0.671472489834
-0.0916786646214 0.172608796149 0.67146718502
-0.0917214792215 0.173954529558 0.671780765057
-0.0917647088652 0.175302236936 0.67209738493
-0.0919064340618 0.176840655885 0.673135399818
-0.0920810535017 0.178446731269 0.674414336681
-0.0908852894764 0.165881542331 0.674966275692
-0.090743673162 0.166892210081 0.673914551735
-0.0906021451321 0.16789908014 0.672863483429
-0.0904946628039 0.168965559221 0.672065258026
-0.0904545575773 0.170155776142 0.671767413616
-0.0904148456179 0.171345616521 0.671472489834
-0.0904141313163 0.172608796149 0.67146718502
-0.0904563553701 0.173954529558 0.671780765057
-0.0904989887429 0.175302236936 0.67209738493
-0.0906387591093 0.176840655885 0.673135399818
-0.0908109700051 0.178446731269 0.674414336681
-0.0896141665467 0.165881542331 0.674966275692
-0.0894745308801 0.166892210081 0.673914551735
-0.0893349822632 0.16789908014 0.672863483429
-0.0892290031843 0.168965559221 0.672065258026
-0.0891894588699 0.170155776142 0.671767413616
-0.0891499541237 0.171344947287 0.671469867229
-0.0891495980112 0.172608796149 0.67146718502
-0.0891912315188 0.173954529558 0.671780765057
-0.0892329283353 0.175301568432 0.67209482193
-0.0893707280442 0.176839951236 0.673132717609
-0.0895405224824 0.178446005798 0.674411594868
-0.0883430436169 0.165881542331 0.674966275692
-0.0882053885981 0.166892210081 0.673914551735
-0.0880678193942 0.16789908014 0.672863483429
-0.0879633435646 0.168965559221 0.672065258026
-0.0879243601626 0.170155776142 0.671767413616
-0.0878854157673 0.171344947287 0.671469867229
-0.0878850647061 0.172608796149 0.67146718502
-0.0879261076675 0.173954529558 0.671780765057
-0.0879672130398 0.175301568432 0.67209482193
-0.0881030581429 0.176839951236 0.673132717609
-0.0882700930881 0.178445296099 0.674408912659
-0.0870719206872 0.165881542331 0.674966275692
-0.0869362463161 0.166892210081 0.673914551735
-0.0868006565252 0.16789908014 0.672863483429
-0.086697683945 0.168965559221 0.672065258026
-0.0866592614552 0.170155776142 0.671767413616
-0.086620877411 0.171344947287 0.671469867229
-0.0866201853909 0.172608106655 0.671464502811
-0.0866606454953 0.173953850447 0.671778142452
-0.0867014977443 0.175301568432 0.67209482193
-0.0868350345424 0.176839230929 0.673129975796
-0.0870000198063 0.178445296099 0.674408912659
-0.0858007977575 0.165881542331 0.674966275692
-0.0856671040341 0.166892210081 0.673914551735
-0.0855334936562 0.16789908014 0.672863483429
-0.0854320243254 0.168965559221 0.672065258026
-0.0853941627478 0.170155776142 0.671767413616
-0.0853563390546 0.171344947287 0.671469867229
-0.085355657137 0.172608106655 0.671464502811
-0.0853955265829 0.173953850447 0.671778142452
-0.0854354414899 0.175300868835 0.672092139721
-0.0855673698045 0.176839230929 0.673129975796
-0.0857295979888 0.178444570628 0.674406170845
-0.0845296748277 0.165881542331 0.674966275692
-0.0843979617521 0.166892210081 0.673914551735
-0.0842666741594 0.167899764303 0.672866225243
-0.0841663647057 0.168965559221 0.672065258026
-0.0841290640404 0.170155776142 0.671767413616
-0.0840918006982 0.171344947287 0.671469867229
-0.0840911288832 0.172608106655 0.671464502811
-0.0841304076706 0.173953850447 0.671778142452
-0.0841697312457 0.175300868835 0.672092139721
-0.0842993691592 0.176838526281 0.673127293587
-0.0844595298704 0.178444570628 0.674406170845
-0.083258551898 0.165881542331 0.674966275692
-0.0831288194701 0.166892210081 0.673914551735
-0.0829995061269 0.167899764303 0.672866225243
-0.0829007050861 0.168965559221 0.672065258026
-0.0828639653331 0.170155776142 0.671767413616
-0.0828272623419 0.171344947287 0.671469867229
-0.0828262624206 0.172607401838 0.671461760998
-0.0828649579019 0.173953155901 0.671775460243
-0.0829040210014 0.175300868835 0.672092139721
-0.0830317094726 0.176838526281 0.673127293587
-0.0831891308958 0.178443860929 0.674403488636
-0.0819874289682 0.165881542331 0.674966275692
-0.0818596771881 0.166892210081 0.673914551735
-0.0817323380944 0.167899764303 0.672866225243
-0.0816347196614 0.168964884881 0.672062575817
-0.0815988666257 0.170155776142 0.671767413616
-0.0815627239855 0.171344947287 0.671469867229
-0.0815617393302 0.172607401838 0.671461760998
-0.0815998440408 0.173953155901 0.671775460243
-0.0816383107571 0.175300868835 0.672092139721
-0.0817637239809 0.176837821633 0.673124611378
-0.0819190678287 0.178443860929 0.674403488636
-0.0807163060385 0.165881542331 0.674966275692
-0.0805905349062 0.166892210081 0.673914551735
-0.080465170062 0.167899764303 0.672866225243
-0.080369065093 0.168964884881 0.672062575817
-0.0803334471645 0.17015509675 0.671764731407
-0.0802981856291 0.171344947287 0.671469867229
-0.0802972162398 0.172607401838 0.671461760998
-0.0803347301797 0.173953155901 0.671775460243
-0.080372279759 0.175300169238 0.672089457512
-0.0804960693455 0.176837821633 0.673124611378
-0.0806486840077 0.17844315123 0.674400806427
-0.0794454917957 0.165882186869 0.674968898296
-0.0793213926242 0.166892210081 0.673914551735
-0.0791980020295 0.167899764303 0.672866225243
-0.0791034105246 0.168964884881 0.672062575817
-0.0790683535084 0.17015509675 0.671764731407
-0.0790333315702 0.171344262844 0.67146718502
-0.0790326931495 0.172607401838 0.671461760998
-0.0790696163186 0.173953155901 0.671775460243
-0.0791065745659 0.175300169238 0.672089457512
-0.0792281060232 0.176837132644 0.673121988773
-0.0793786259919 0.17844315123 0.674400806427
-0.078174363927 0.165882186869 0.674968898296
-0.0780522503422 0.166892210081 0.673914551735
-0.077930833997 0.167899764303 0.672866225243
-0.0778377559562 0.168964884881 0.672062575817
-0.0778032598522 0.17015509675 0.671764731407
-0.0777687982651 0.171344262844 0.67146718502
-0.0777678594077 0.172606712344 0.671459078789
-0.0778041918062 0.173952461355 0.671772778034
-0.0778408693728 0.175300169238 0.672089457512
-0.0779604563269 0.176837132644 0.673121988773
-0.0781082504213 0.178442425759 0.674398064613
-0.0769032360582 0.165882186869 0.674968898296
-0.0767831080602 0.166892210081 0.673914551735
-0.0766636659646 0.167899764303 0.672866225243
-0.0765721013878 0.168964884881 0.672062575817
-0.0765381661961 0.17015509675 0.671764731407
-0.07650426496 0.171344262844 0.67146718502
-0.0765033413686 0.172606712344 0.671459078789
-0.0765390829964 0.173952461355 0.671772778034
-0.0765748517886 0.175299454095 0.672086715698
-0.0766924874482 0.176836396678 0.673119187355
-0.0768381975689 0.178442425759 0.674398064613
-0.0756321081895 0.165882186869 0.674968898296
-0.0755142730059 0.16689288908 0.673917293549
-0.0753964979321 0.167899764303 0.672866225243
-0.0753064468194 0.168964884881 0.672062575817
-0.07527307254 0.17015509675 0.671764731407
-0.0752397316548 0.171344262844 0.67146718502
-0.0752388233294 0.172606712344 0.671459078789
-0.0752739741865 0.173952461355 0.671772778034
-0.075309151759 0.175299454095 0.672086715698
-0.0754248430275 0.176836396678 0.673119187355
-0.0755678441677 0.17844171606 0.674395382404
-0.0743609803208 0.165882186869 0.674968898296
-0.0742451255604 0.16689288908 0.673917293549
-0.0741293298996 0.167899764303 0.672866225243
-0.074040792251 0.168964884881 0.672062575817
-0.0740079788838 0.17015509675 0.671764731407
-0.0739751983497 0.171344262844 0.67146718502
-0.0739740163593 0.172606038172 0.671456456184
-0.074008569879 0.17395176681 0.671770095825
-0.0740434517295 0.175299454095 0.672086715698
-0.0741569096759 0.176835707689 0.673116564751
-0.0742977963666 0.17844171606 0.674395382404
-0.0730898524521 0.165882186869 0.674968898296
-0.072975978115 0.16689288908 0.673917293549
-0.0728621618671 0.167899764303 0.672866225243
-0.0727751376826 0.168964884881 0.672062575817
-0.0727428852277 0.17015509675 0.671764731407
-0.0727106650446 0.171344262844 0.67146718502
-0.0727095032591 0.172606038172 0.671456456184
-0.0727434661204 0.17395176681 0.671770095825
-0.0727777516999 0.175299454095 0.672086715698
-0.0728889668392 0.176834971723 0.673113763332
-0.0730274581191 0.178441006361 0.674392700195
-0.0718187245833 0.165882186869 0.674968898296
-0.0717068306695 0.16689288908 0.673917293549
-0.0715949938347 0.167899764303 0.672866225243
-0.0715091977191 0.16896421054 0.672059893608
-0.0714777915716 0.17015509675 0.671764731407
-0.0714461317395 0.171344262844 0.67146718502
-0.071444990159 0.172606038172 0.671456456184
-0.0714783623618 0.17395176681 0.671770095825
-0.0715117662752 0.175298754498 0.672084033489
-0.0716213326333 0.176834971723 0.673113763332
-0.0717571236319 0.17844028089 0.674389958382
-0.0705475967146 0.165882186869 0.674968898296
-0.070437683224 0.16689288908 0.673917293549
-0.0703278258022 0.167899764303 0.672866225243
-0.070243548202 0.16896421054 0.672059893608
-0.0702124175716 0.170154417358 0.671762049198
-0.0701815984343 0.171344262844 0.67146718502
-0.0701804770588 0.172606038172 0.671456456184
-0.0702132586032 0.17395176681 0.671770095825
-0.0702460712969 0.175298754498 0.672084033489
-0.0703534243134 0.176834282734 0.673111140728
-0.0704870860455 0.17844028089 0.674389958382
-0.0692764688459 0.165882186869 0.674968898296
-0.0691685357785 0.16689288908 0.673917293549
-0.0690606577697 0.167899764303 0.672866225243
-0.0689778986848 0.16896421054 0.672059893608
-0.0689473289667 0.170154417358 0.671762049198
-0.0689167898366 0.171343578401 0.671464502811
-0.068915688666 0.172605348677 0.671453773975
-0.0689478795519 0.173951072264 0.671767413616
-0.0689803763186 0.175298754498 0.672084033489
-0.0690857950465 0.176834282734 0.673111140728
-0.0692167731665 0.178439571191 0.674387276173
-0.0680053409771 0.165882186869 0.674968898296
-0.067899388333 0.16689288908 0.673917293549
-0.0677934897373 0.167899764303 0.672866225243
-0.0677122491677 0.16896421054 0.672059893608
-0.0676822403618 0.170154417358 0.671762049198
-0.0676522615827 0.171343578401 0.671464502811
-0.0676511806171 0.172605348677 0.671453773975
-0.0676827808446 0.173951072264 0.671767413616
-0.0677144110989 0.175298054901 0.67208135128
-0.0678178955382 0.176833578085 0.673108458519
-0.0679467406313 0.178439571191 0.674387276173
-0.0667342131084 0.165882186869 0.674968898296
-0.0666302408876 0.16689288908 0.673917293549
-0.0665263217048 0.167899764303 0.672866225243
-0.0664465996505 0.16896421054 0.672059893608
-0.0664171517569 0.170154417358 0.671762049198
-0.0663877333288 0.171343578401 0.671464502811
-0.0663866725682 0.172605348677 0.671453773975
-0.0664176821372 0.173951072264 0.671767413616
-0.0664487211718 0.175298054901 0.67208135128
-0.0665502713225 0.176833578085 0.673108458519
-0.0666764487991 0.178438877262 0.674384653568
-0.0654630852397 0.165882186869 0.674968898296
-0.0653610934421 0.16689288908 0.673917293549
-0.0652594080304 0.167900418719 0.672868847847
-0.0651809501334 0.16896421054 0.672059893608
-0.065152063152 0.170154417358 0.671762049198
-0.0651232050749 0.171343578401 0.671464502811
-0.0651219101612 0.172604674505 0.671451151371
-0.0651525834298 0.173951072264 0.671767413616
-0.0651830312447 0.175298054901 0.67208135128
-0.0652823869679 0.176832873437 0.67310577631
-0.0654061495023 0.178438136021 0.67438185215
-0.0641919573709 0.165882186869 0.674968898296
-0.0640919459966 0.16689288908 0.673917293549
-0.0639922350589 0.167900418719 0.672868847847
-0.0639153006162 0.16896421054 0.672059893608
-0.0638869745471 0.170154417358 0.671762049198
-0.063858676821 0.171343578401 0.671464502811
-0.0638574070513 0.172604674505 0.671451151371
-0.0638872296348 0.173950377718 0.671764731407
-0.0639170862299 0.175297355304 0.672078669071
-0.0640147678035 0.176832873437 0.67310577631
-0.0641358720942 0.178437426321 0.674379169941
-0.0629208295022 0.165882186869 0.674968898296
-0.0628227985511 0.16689288908 0.673917293549
-0.0627250620874 0.167900418719 0.672868847847
-0.0626496510991 0.16896421054 0.672059893608
-0.0626218859422 0.170154417358 0.671762049198
-0.0625941485672 0.171343578401 0.671464502811
-0.0625929039414 0.172604674505 0.671451151371
-0.0626221359786 0.173950377718 0.671764731407
-0.0626514013541 0.175297355304 0.672078669071
-0.0627468986026 0.176832168789 0.673103094101
-0.062865854825 0.178437426321 0.674379169941
-0.0616497016335 0.165882186869 0.674968898296
-0.0615536511057 0.16689288908 0.673917293549
-0.061457889116 0.167900418719 0.672868847847
-0.0613837565967 0.168963536199 0.672057211399
-0.0613567973373 0.170154417358 0.671762049198
-0.0613296203133 0.171343578401 0.671464502811
-0.0613284008314 0.172604674505 0.671451151371
-0.0613570423225 0.173950377718 0.671764731407
-0.0613857164783 0.175297355304 0.672078669071
-0.0614792844894 0.176832168789 0.673103094101
-0.0615955871265 0.178436700851 0.674376428127
-0.0603785737647 0.165882186869 0.674968898296
-0.0602845036602 0.16689288908 0.673917293549
-0.0601907161445 0.167900418719 0.672868847847
-0.0601181121308 0.168963536199 0.672057211399
-0.0600914687985 0.170153737966 0.671759366989
-0.0600650920594 0.171343578401 0.671464502811
-0.0600636471238 0.172603954366 0.671448349953
-0.0600917087324 0.173949683173 0.671762049198
-0.0601200316024 0.175297355304 0.672078669071
-0.0602114304423 0.176831464141 0.673100411892
-0.0603255750208 0.178436700851 0.674376428127
-0.059107691218 0.165882875354 0.674971699715
-0.0590153562147 0.16689288908 0.673917293549
-0.058923543173 0.167900418719 0.672868847847
-0.0588524676649 0.168963536199 0.672057211399
-0.0588263852448 0.170153737966 0.671759366989
-0.0588003237032 0.171342878748 0.671461760998
-0.0587991492896 0.172603954366 0.671448349953
-0.0588266201275 0.173949683173 0.671762049198
-0.0588541170635 0.175296671254 0.672076046467
-0.0589438213804 0.176831464141 0.673100411892
-0.0590553280324 0.178435991152 0.674373745918
-0.0578365580735 0.165882875354 0.674971699715
-0.0577462087692 0.16689288908 0.673917293549
-0.0576563702016 0.167900418719 0.672868847847
-0.057586823199 0.168963536199 0.672057211399
-0.0575613016912 0.170153737966 0.671759366989
-0.0575358006128 0.171342878748 0.671461760998
-0.0575346514555 0.172603954366 0.671448349953
-0.0575615315226 0.173949683173 0.671762049198
-0.0575884371266 0.175296671254 0.672076046467
-0.0576759773796 0.176830743834 0.673097670078
-0.0577853209779 0.178435991152 0.674373745918
-0.056565424929 0.165882875354 0.674971699715
-0.056477286104 0.166893553319 0.673919975758
-0.0563891972301 0.167900418719 0.672868847847
-0.0563211787331 0.168963536199 0.672057211399
-0.0562962181375 0.170153737966 0.671759366989
-0.0562712775224 0.171342878748 0.671461760998
-0.0562699338362 0.172603280194 0.671445727348
-0.0562964429177 0.173949683173 0.671762049198
-0.0563227571898 0.175296671254 0.672076046467
-0.0564083734811 0.176830743834 0.673097670078
-0.0565150891432 0.178435281452 0.674371063709
-0.0552942917845 0.165882875354 0.674971699715
-0.0552081336073 0.166893553319 0.673919975758
-0.0551220242587 0.167900418719 0.672868847847
-0.0550555342672 0.168963536199 0.672057211399
-0.0550311345839 0.170153737966 0.671759366989
-0.055006754432 0.171342878748 0.671461760998
-0.055005440941 0.172603280194 0.671445727348
-0.0550311345839 0.173948988627 0.671759366989
-0.0550568477582 0.175295940564 0.672073245049
-0.0551405498537 0.176830039186 0.673094987869
-0.05524508714 0.178435281452 0.674371063709
-0.0540231586401 0.165882875354 0.674971699715
-0.0539389811105 0.166893553319 0.673919975758
-0.0538548512872 0.167900418719 0.672868847847
-0.0537898898012 0.168963536199 0.672057211399
-0.0537660510302 0.170153737966 0.671759366989
-0.0537422313416 0.171342878748 0.671461760998
-0.0537409480458 0.172603280194 0.671445727348
-0.0537660510302 0.173948988627 0.671759366989
-0.0537911730971 0.175295940564 0.672073245049
-0.0538729510065 0.176830039186 0.673094987869
-0.0539748656884 0.178434555982 0.674368321896
-0.0527520254956 0.165882875354 0.674971699715
-0.0526698286138 0.166893553319 0.673919975758
-0.0525876783157 0.167900418719 0.672868847847
-0.0525242453353 0.168963536199 0.672057211399
-0.0525009674766 0.170153737966 0.671759366989
-0.0524777082512 0.171342878748 0.671461760998
-0.0524764551506 0.172603280194 0.671445727348
-0.0525009674766 0.173948988627 0.671759366989
-0.052525498436 0.175295940564 0.672073245049
-0.0526051425328 0.176829334538 0.67309230566
-0.0527048688487 0.178434555982 0.674368321896
-0.0514808923511 0.165882875354 0.674971699715
-0.0514006761171 0.166893553319 0.673919975758
-0.0513205053443 0.167900418719 0.672868847847
-0.0512583962942 0.168962861859 0.67205452919
-0.0512358839229 0.170153737966 0.671759366989
-0.0512131851608 0.171342878748 0.671461760998
-0.0512117576801 0.1726025907 0.671443045139
-0.0512356748015 0.173948278647 0.671756625175
-0.0512598237749 0.175295940564 0.672073245049
-0.0513375487368 0.176829334538 0.67309230566
-0.0514346674337 0.178433846282 0.674365639687
-0.0502097592066 0.165882875354 0.674971699715
-0.0501315236204 0.166893553319 0.673919975758
-0.0500533323728 0.167900418719 0.672868847847
-0.0499927568795 0.168962861859 0.67205452919
-0.0499705964114 0.170153043477 0.671756625175
-0.0499486620705 0.171342878748 0.671461760998
-0.0499472698362 0.1726025907 0.671443045139
-0.0499705964114 0.173948278647 0.671756625175
-0.0499939540236 0.175295256513 0.672070622444
-0.0500697554168 0.17682862989 0.673089623451
-0.0501644805551 0.178433152354 0.674363017082
-0.0489386260622 0.165882875354 0.674971699715
-0.0488623711237 0.166893553319 0.673919975758
-0.0487861594013 0.167900418719 0.672868847847
-0.0487271174648 0.168962861859 0.67205452919
-0.0487055180212 0.170153043477 0.671756625175
-0.0486839445073 0.171342194305 0.671459078789
-0.0486827819922 0.1726025907 0.671443045139
-0.0487055180212 0.173948278647 0.671756625175
-0.0487282843015 0.175295256513 0.672070622444
-0.0488019678777 0.176827909583 0.673086881638
-0.0488944937056 0.178433152354 0.674363017082
-0.0476674929177 0.165882875354 0.674971699715
-0.0475932186269 0.166893553319 0.673919975758
-0.0475191800608 0.167901102881 0.672871589661
-0.0474614780501 0.168962861859 0.67205452919
-0.047440439631 0.170153043477 0.671756625175
-0.0474194264681 0.171342194305 0.671459078789
-0.0474182941483 0.1726025907 0.671443045139
-0.047440439631 0.173948278647 0.671756625175
-0.0474626145794 0.175295256513 0.672070622444
-0.0475343842964 0.176827909583 0.673086881638
-0.0476243090158 0.178432411113 0.674360215664
-0.0463963597732 0.165882875354 0.674971699715
-0.0463240661302 0.166893553319 0.673919975758
-0.0462520019258 0.167901102881 0.672871589661
-0.0461958386355 0.168962861859 0.67205452919
-0.0461753612409 0.170153043477 0.671756625175
-0.046154908429 0.171342194305 0.671459078789
-0.046153621934 0.172601901205 0.67144036293
-0.0461751850648 0.17394761497 0.671754062176
-0.046196760487 0.175294556916 0.672067940235
-0.0462666163449 0.176827204935 0.673084199429
-0.0463543274421 0.178432411113 0.674360215664
-0.0451252266288 0.165882875354 0.674971699715
-0.0450549136335 0.166893553319 0.673919975758
-0.0449848237909 0.167901102881 0.672871589661
-0.0449301992208 0.168962861859 0.67205452919
-0.0449102828507 0.170153043477 0.671756625175
-0.0448903903898 0.171342194305 0.671459078789
-0.0448891391413 0.172601901205 0.67144036293
-0.0449101115014 0.17394761497 0.671754062176
-0.0449310958161 0.175294556916 0.672067940235
-0.0449990378149 0.176827204935 0.673084199429
-0.0450841665492 0.178431701413 0.674357533455
-0.0438540934843 0.165882875354 0.674971699715
-0.0437857611368 0.166893553319 0.673919975758
-0.0437176456559 0.167901102881 0.672871589661
-0.0436645598061 0.168962861859 0.67205452919
-0.0436452044606 0.170153043477 0.671756625175
-0.0436258723507 0.171342194305 0.671459078789
-0.0436246563486 0.172601901205 0.67144036293
-0.043645037938 0.17394761497 0.671754062176
-0.0436654311452 0.175294556916 0.672067940235
-0.0437312850171 0.176826500286 0.67308151722
-0.0438141900267 0.178431701413 0.674357533455
-0.0425829603398 0.165882875354 0.674971699715
-0.0425166086401 0.166893553319 0.673919975758
-0.042450467521 0.167901102881 0.672871589661
-0.0423989203915 0.168962861859 0.67205452919
-0.0423801260704 0.170153043477 0.671756625175
-0.0423613543115 0.171342194305 0.671459078789
-0.0423600043393 0.172601211711 0.671437680721
-0.0423797913976 0.17394690499 0.671751320362
-0.0423997664743 0.175294556916 0.672067940235
-0.0424637115383 0.176826500286 0.67308151722
-0.0425440405273 0.178430975943 0.674354791641
-0.0413118271953 0.165882875354 0.674971699715
-0.0412474561434 0.166893553319 0.673919975758
-0.041183289386 0.167901102881 0.672871589661
-0.0411331168115 0.168962187518 0.672051846981
-0.0411148908111 0.17015239428 0.671754062176
-0.0410968362724 0.171342194305 0.671459078789
-0.0410955265978 0.172601211711 0.671437680721
-0.0411147229977 0.17394690499 0.671751320362
-0.0411339376381 0.175293857319 0.672065258026
-0.0411959738942 0.176825795638 0.673078835011
-0.0412740691682 0.178430975943 0.674354791641
-0.0400406940509 0.165882875354 0.674971699715
-0.0399783036466 0.166893553319 0.673919975758
-0.0399161112511 0.167901102881 0.672871589661
-0.039867482448 0.168962187518 0.672051846981
-0.0398498172477 0.17015239428 0.671754062176
-0.039832162655 0.171341525072 0.671456456184
-0.0398310488563 0.172601211711 0.671437680721
-0.0398496545978 0.17394690499 0.671751320362
-0.0398682780185 0.175293857319 0.672065258026
-0.0399284054667 0.176825795638 0.673078835011
-0.0400039386951 0.178430266243 0.674352109432
-0.0387697149693 0.165883534541 0.674974381924
-0.0387091511499 0.166893553319 0.673919975758
-0.0386489331161 0.167901102881 0.672871589661
-0.0386018480846 0.168962187518 0.672051846981
-0.0385847436843 0.17015239428 0.671754062176
-0.0385676495548 0.171341525072 0.671456456184
-0.0385665711149 0.172601211711 0.671437680721
-0.0385845861978 0.17394690499 0.671751320362
-0.0386026183989 0.175293857319 0.672065258026
-0.0386606864 0.176825106649 0.673076212406
-0.0387339723873 0.178430266243 0.674352109432
-0.0374985767735 0.165883534541 0.674974381924
-0.0374399986532 0.166893553319 0.673919975758
-0.0373817549811 0.167901102881 0.672871589661
-0.0373362137212 0.168962187518 0.672051846981
-0.0373196701209 0.17015239428 0.671754062176
-0.0373031364547 0.171341525072 0.671456456184
-0.0373019443618 0.172600522216 0.671434998512
-0.0373193687863 0.173946210445 0.671748638153
-0.0373368097676 0.175293157723 0.672062575817
-0.0373931229115 0.176825106649 0.673076212406
-0.0374638603793 0.178429572315 0.674349486828
-0.0362274385778 0.165883534541 0.674974381924
-0.0361709901169 0.166894217557 0.673922657967
-0.0361145768462 0.167901102881 0.672871589661
-0.0360705793577 0.168962187518 0.672051846981
-0.0360545965575 0.17015239428 0.671754062176
-0.0360386233545 0.171341525072 0.671456456184
-0.0360374716716 0.172600522216 0.671434998512
-0.0360543054376 0.173946210445 0.671748638153
-0.0360711551992 0.175293157723 0.672062575817
-0.0361254090643 0.176824370683 0.673073410988
-0.0361938990105 0.178429572315 0.674349486828
-0.0349563003821 0.165883534541 0.674974381924
-0.0349018325689 0.166894217557 0.673922657967
-0.0348473987112 0.167901102881 0.672871589661
-0.0348049449943 0.168962187518 0.672051846981
-0.034789522994 0.17015239428 0.671754062176
-0.0347741102544 0.171341525072 0.671456456184
-0.0347729989813 0.172600522216 0.671434998512
-0.0347892420889 0.173946210445 0.671748638153
-0.0348055006308 0.175293157723 0.672062575817
-0.0348578508515 0.176824370683 0.673073410988
-0.0349237987326 0.178428862616 0.674346804619
-0.0336851621864 0.165883534541 0.674974381924
-0.0336326750209 0.166894217557 0.673922657967
-0.0335802205763 0.167901102881 0.672871589661
-0.0335393106309 0.168962187518 0.672051846981
-0.0335244494306 0.17015239428 0.671754062176
-0.0335095971542 0.171341525072 0.671456456184
-0.0335083924332 0.172599832722 0.671432316303
-0.0335240448823 0.173945515899 0.671745955944
-0.0335398460624 0.175293157723 0.672062575817
-0.0335901587809 0.176823666035 0.673070728779
-0.0336538424151 0.178428862616 0.674346804619
-0.0324140239907 0.165883534541 0.674974381924
-0.032363517473 0.166894217557 0.673922657967
-0.0323130424413 0.167901102881 0.672871589661
-0.0322736762675 0.168962187518 0.672051846981
-0.0322593758672 0.17015239428 0.671754062176
-0.0322450840541 0.171341525072 0.671456456184
-0.0322439247942 0.172599832722 0.671432316303
-0.0322589865849 0.173945515899 0.671745955944
-0.0322740626874 0.175292458126 0.672059893608
-0.0323226056193 0.176823666035 0.673070728779
-0.0323837515661 0.178428121374 0.674344003201
-0.031142885795 0.165883534541 0.674974381924
-0.031094359925 0.166894217557 0.673922657967
-0.0310458643064 0.167901102881 0.672871589661
-0.0310079153985 0.168961498192 0.672049105167
-0.0309941757983 0.17015169979 0.671751320362
-0.0309805709539 0.171341525072 0.671456456184
-0.0309794571552 0.172599832722 0.671432316303
-0.0309939282874 0.173945515899 0.671745955944
-0.0310084131702 0.175292458126 0.672059893608
-0.0310549314525 0.176822977046 0.673068106174
-0.0311138005243 0.178428121374 0.674344003201
-0.0298717475993 0.165883534541 0.674974381924
-0.0298252023771 0.166894217557 0.673922657967
-0.0297786861714 0.167901102881 0.672871589661
-0.0297422861986 0.168961498192 0.672049105167
-0.0297291073983 0.17015169979 0.671751320362
-0.0297159391496 0.171340840628 0.671453773975
-0.0297149895162 0.172599832722 0.671432316303
-0.02972886999 0.173945515899 0.671745955944
-0.0297427636531 0.175292458126 0.672059893608
-0.0297873832299 0.176822977046 0.673068106174
-0.0298437334162 0.178427427446 0.674341380596
-0.0286006094035 0.165883534541 0.674974381924
-0.0285560448291 0.166894217557 0.673922657967
-0.0285116216894 0.167901772171 0.67287427187
-0.0284766569986 0.168961498192 0.672049105167
-0.0284640389984 0.17015169979 0.671751320362
-0.0284514311007 0.171340840628 0.671453773975
-0.0284504082243 0.172599143228 0.671429634094
-0.0284636980396 0.173944821353 0.671743273735
-0.028477000483 0.175291758529 0.672057211399
