-0.0424645832422 0.163111623482 0.421470910311
-0.0424851275938 0.163984651367 0.421674817801
-0.0425056839562 0.164858493849 0.4218788445
-0.0425263724365 0.165733619683 0.422084182501
-0.0425979683909 0.166808866876 0.422794789076
-0.0426910875712 0.167971475397 0.423719018698
-0.0422011122192 0.155541242179 0.426834106445
-0.0420227600525 0.155684320575 0.425030201674
-0.041963186557 0.15626291375 0.424427658319
-0.0419037780688 0.156839855057 0.423826783895
-0.0418444373513 0.157414788131 0.423226594925
-0.0417854737932 0.157988886628 0.422630220652
-0.0417336851022 0.158588003388 0.422106415033
-0.0417157906597 0.159314590996 0.421925425529
-0.04169791095 0.160040553456 0.421744585037
-0.0416799369505 0.160765471095 0.421562790871
-0.0416620925995 0.161490206552 0.421382308006
-0.0416507188883 0.162239466908 0.421267271042
-0.0416708527143 0.163111623482 0.421470910311
-0.0416910130594 0.163984651367 0.421674817801
-0.0417111851906 0.164858493849 0.4218788445
-0.0417314869704 0.165733619683 0.422084182501
-0.0418016386066 0.166808443582 0.422793716192
-0.0418930172415 0.167971050083 0.423717945814
-0.0413972815102 0.155541242179 0.426834106445
-0.0412223265277 0.155684320575 0.425030201674
-0.0411638877654 0.15626291375 0.424427658319
-0.0411056108675 0.156839855057 0.423826783895
-0.041047504505 0.157415187179 0.423227667809
-0.0409895600067 0.157988886628 0.422630220652
-0.0409387577669 0.158588003388 0.422106415033
-0.0409212041709 0.159314590996 0.421925425529
-0.0409035609716 0.160040146326 0.421743512154
-0.0408860333895 0.160765471095 0.421562790871
-0.0408685289309 0.161490206552 0.421382308006
-0.0408572706967 0.162239065194 0.421266227961
-0.0408770210213 0.163111219803 0.421469867229
-0.0408967944693 0.163984234134 0.421673744917
-0.04091658526 0.164858086242 0.421877801418
-0.0409364974488 0.165733198409 0.422083109617
-0.0410053157537 0.166808032047 0.422792673111
-0.0410949538432 0.167970636582 0.423716902733
-0.0405935528364 0.155541633145 0.426835179329
-0.0404218930028 0.155684320575 0.425030201674
-0.0403645889739 0.15626291375 0.424427658319
-0.0403074436661 0.156839855057 0.423826783895
-0.0402504655825 0.157415187179 0.423227667809
-0.0401936462202 0.157988886628 0.422630220652
-0.0401438304316 0.158588003388 0.422106415033
-0.0401266176822 0.159314590996 0.421925425529
-0.0401093170692 0.160040146326 0.421743512154
-0.0400921298286 0.160765471095 0.421562790871
-0.040074860393 0.16148978396 0.42138120532
-0.0400639256347 0.162239065194 0.421266227961
-0.0400832924578 0.163111219803 0.421469867229
-0.0401026819554 0.163984234134 0.421673744917
-0.0401220884588 0.164858086242 0.421877801418
-0.0401416140031 0.165733198409 0.422083109617
-0.0402089968296 0.166807620511 0.42279163003
-0.0402969935744 0.167970636582 0.423716902733
-0.0397898228997 0.155542034972 0.426836282015
-0.039621459478 0.155684320575 0.425030201674
-0.0395652901823 0.15626291375 0.424427658319
-0.0395092764648 0.156839855057 0.423826783895
-0.0394534266601 0.157415187179 0.423227667809
-0.0393977324336 0.157988886628 0.422630220652
-0.0393489030963 0.158588003388 0.422106415033
-0.0393319311789 0.159314185886 0.421924352646
-0.0393150731669 0.160040146326 0.421743512154
-0.0392982262676 0.160765471095 0.421562790871
-0.0392812988011 0.16148978396 0.42138120532
-0.0392704833362 0.16223866348 0.421265184879
-0.0392894666579 0.163110816125 0.421468824148
-0.039308472205 0.163983828492 0.421672701836
-0.0393274944212 0.164857678635 0.421876758337
-0.0393466333211 0.165732788838 0.422082066536
-0.0394126818342 0.166807208975 0.422790586948
-0.0394989305128 0.167970199454 0.423715800047
-0.0389860860877 0.155542425938 0.426837354898
-0.0388211266694 0.155684724478 0.425031304359
-0.0387659913908 0.15626291375 0.424427658319
-0.0387111092635 0.156839855057 0.423826783895
-0.0386563877377 0.157415187179 0.423227667809
-0.0386018186471 0.157988886628 0.422630220652
-0.038553975761 0.158588003388 0.422106415033
-0.0385373467106 0.159314185886 0.421924352646
-0.0385208292645 0.160040146326 0.421743512154
-0.0385042274346 0.16076507331 0.421561747789
-0.0384877372091 0.16148978396 0.42138120532
-0.0384771402385 0.16223866348 0.421265184879
-0.0384957400587 0.163110816125 0.421468824148
-0.0385143616554 0.163983828492 0.421672701836
-0.0385329995845 0.164857678635 0.421876758337
-0.0385517518399 0.165732788838 0.422082066536
-0.0386163707675 0.166806797439 0.422789543867
-0.0387008743266 0.167969774139 0.423714727163
-0.0381822492612 0.155542425938 0.426837354898
-0.0380206910679 0.155684724478 0.425031304359
-0.0379666925992 0.15626291375 0.424427658319
-0.0379129420622 0.156839855057 0.423826783895
-0.0378593488153 0.157415187179 0.423227667809
-0.0378059048606 0.157988886628 0.422630220652
-0.0377589551181 0.158587611496 0.422105371952
-0.0377427622423 0.159314185886 0.421924352646
-0.0377265853621 0.160040146326 0.421743512154
-0.037710325838 0.16076507331 0.421561747789
-0.0376941756172 0.16148978396 0.42138120532
-0.0376837038332 0.162238261766 0.421264141798
-0.0377019201519 0.163110412447 0.421467781067
-0.0377201577982 0.163983422849 0.421671658754
-0.03773841144 0.164857271027 0.421875715256
-0.0377567743851 0.165732367564 0.422080993652
-0.0378200582978 0.166806362387 0.422788441181
-0.0379028195154 0.16796933701 0.423713624477
-0.0373785089975 0.155542827764 0.426838457584
-0.0372202554665 0.155684724478 0.425031304359
-0.0371673938076 0.15626291375 0.424427658319
-0.0371147748609 0.156839855057 0.423826783895
-0.0370623098928 0.157415187179 0.423227667809
-0.037009991074 0.157988886628 0.422630220652
-0.0369640297472 0.158587611496 0.422105371952
-0.0369481777741 0.159314185886 0.421924352646
-0.0369322475067 0.160039739196 0.42174243927
-0.0369164242414 0.16076507331 0.421561747789
-0.0369006140252 0.16148978396 0.42138120532
-0.0368903626998 0.162238261766 0.421264141798
-0.0369081955172 0.163110412447 0.421467781067
-0.036926049213 0.163983422849 0.421671658754
-0.0369439185676 0.164857271027 0.421875715256
-0.0369618949244 0.165732367564 0.422080993652
-0.037023752591 0.166805939093 0.422787368298
-0.0371047740771 0.16796892351 0.423712581396
-0.0365747620269 0.15554321873 0.426839530468
-0.0364198198651 0.155684724478 0.425031304359
-0.0363681895023 0.15626331973 0.424428761005
-0.0363166076596 0.156839855057 0.423826783895
-0.0362652709704 0.157415187179 0.423227667809
-0.0362140772875 0.157988886628 0.422630220652
-0.0361691043763 0.158587611496 0.422105371952
-0.0361535933058 0.159314185886 0.421924352646
-0.0361380056248 0.160039739196 0.42174243927
-0.0361225226449 0.16076507331 0.421561747789
-0.0361069630544 0.16148938421 0.421380162239
-0.0360970215665 0.162238261766 0.421264141798
-0.0361144708824 0.163110412447 0.421467781067
-0.0361319406277 0.163983422849 0.421671658754
-0.0361494256952 0.164857271027 0.421875715256
-0.0361670154636 0.165732367564 0.422080993652
-0.0362274483716 0.166805504041 0.422786265612
-0.0363067300138 0.167968498196 0.423711508512
-0.0357710135129 0.155543620556 0.426840633154
-0.0356193842636 0.155684724478 0.425031304359
-0.0355688886342 0.15626331973 0.424428761005
-0.0355184404583 0.156839855057 0.423826783895
-0.035468232048 0.157415187179 0.423227667809
-0.0354181635009 0.157988886628 0.422630220652
-0.0353741790054 0.158587611496 0.422105371952
-0.0353589189255 0.159313780777 0.421923279762
-0.035343763743 0.160039739196 0.42174243927
-0.0353286210483 0.16076507331 0.421561747789
-0.0353134034268 0.16148938421 0.421380162239
-0.0353035880235 0.162237837097 0.421263039112
-0.0353206588331 0.163110008768 0.421466737986
-0.0353377396329 0.163982994027 0.421670556068
-0.0353548454082 0.16485686342 0.421874672174
-0.0353720460908 0.165731946291 0.422079920769
-0.0354311533006 0.166805092505 0.42278522253
-0.0355086924891 0.167968084695 0.423710465431
-0.0349671705126 0.155543620556 0.426840633154
-0.0348189486622 0.155684724478 0.425031304359
-0.034769587766 0.15626331973 0.424428761005
-0.03472036359 0.156840263113 0.423827886581
-0.0346711931256 0.157415187179 0.423227667809
-0.0346222497144 0.157988886628 0.422630220652
-0.0345791633015 0.15858719721 0.422104269266
-0.0345643364777 0.159313780777 0.421923279762
-0.0345495218611 0.160039739196 0.42174243927
-0.0345346315601 0.160764664159 0.421560674906
-0.0345198437992 0.16148938421 0.421380162239
-0.0345102489668 0.162237837097 0.421263039112
-0.0345269361627 0.163110008768 0.421466737986
-0.0345436331242 0.163982994027 0.421670556068
-0.0345603545002 0.16485686342 0.421874672174
-0.0345771686505 0.165731946291 0.422079920769
-0.0346348621583 0.166804680969 0.422784179449
-0.0347106588931 0.167967671195 0.42370942235
-0.0341634109981 0.155544000662 0.426841676235
-0.0340185130608 0.155684724478 0.425031304359
-0.0339702868978 0.15626331973 0.424428761005
-0.0339221943121 0.156840263113 0.423827886581
-0.0338741542031 0.157415187179 0.423227667809
-0.0338263359279 0.157988886628 0.422630220652
-0.0337842400072 0.15858719721 0.422104269266
-0.0337697540299 0.159313780777 0.421923279762
-0.0337552799792 0.160039739196 0.42174243927
-0.033740731984 0.160764664159 0.421560674906
-0.0337262841717 0.16148938421 0.421380162239
-0.0337168264243 0.162237435383 0.421261996031
-0.0337331276212 0.163109593556 0.421465665102
-0.0337494431299 0.163982588384 0.421669512987
-0.0337657753357 0.164856432521 0.421873569489
-0.0337822077245 0.165731536719 0.422078877687
-0.0338386584305 0.166804680969 0.422784179449
-0.0339126292258 0.167967257695 0.423708379269
-0.033359649884 0.155544391628 0.426842749119
-0.0332180774594 0.155684724478 0.425031304359
-0.0331709860296 0.15626331973 0.424428761005
-0.0331240250341 0.156840263113 0.423827886581
-0.0330771152807 0.157415187179 0.423227667809
-0.0330304221413 0.157988886628 0.422630220652
-0.0329893167129 0.15858719721 0.422104269266
-0.0329751715822 0.159313780777 0.421923279762
-0.032960956576 0.160039343375 0.421741396189
-0.0329468324079 0.160764664159 0.421560674906
-0.0329327245441 0.16148938421 0.421380162239
-0.032923489332 0.162237435383 0.421261996031
-0.0329394069712 0.163109593556 0.421465665102
-0.0329553385856 0.163982588384 0.421669512987
-0.0329712865043 0.164856432521 0.421873569489
-0.0329873322486 0.165731536719 0.422078877687
-0.0330423708521 0.166804257675 0.422783106565
-0.033114598829 0.167966820566 0.423707276583
-0.0325558870021 0.155544793454 0.426843851805
-0.0324176418579 0.155684724478 0.425031304359
-0.0323716851614 0.15626331973 0.424428761005
-0.0323258557562 0.156840263113 0.423827886581
-0.0322801581884 0.157415586227 0.423228740692
-0.0322345879118 0.157989276556 0.422631263733
-0.0321943934186 0.15858719721 0.422104269266
-0.0321805095774 0.15931338692 0.421922236681
-0.0321667166585 0.160039343375 0.421741396189
-0.0321529328318 0.160764664159 0.421560674906
-0.0321390830864 0.161488973039 0.421379089355
-0.0321300704095 0.162237022191 0.421260923147
-0.0321456067643 0.163109189878 0.421464622021
-0.0321611522113 0.163982171151 0.421668440104
-0.0321767181158 0.164856024914 0.421872526407
-0.0321923749427 0.165731115446 0.422077804804
-0.0322460895878 0.166803846139 0.422782063484
-0.0323165748584 0.167966395252 0.423706203699
-0.0317520379403 0.155544793454 0.426843851805
-0.0316172062565 0.155684724478 0.425031304359
-0.0315723842932 0.15626331973 0.424428761005
-0.0315276864783 0.156840263113 0.423827886581
-0.0314831172455 0.157415586227 0.423228740692
-0.0314386721609 0.157989276556 0.422631263733
-0.0313994701243 0.15858719721 0.422104269266
-0.031385929094 0.15931338692 0.421922236681
-0.031372476741 0.160039343375 0.421741396189
-0.0313590332557 0.160764664159 0.421560674906
-0.0313455254794 0.161488973039 0.421379089355
-0.0313367353377 0.162237022191 0.421260923147
-0.0313518880788 0.163109189878 0.421464622021
-0.0313670496876 0.163982171151 0.421668440104
-0.0313822312487 0.164856024914 0.421872526407
-0.0313975014873 0.165731115446 0.422077804804
-0.0314498122522 0.166803434603 0.422781020403
-0.0315185527119 0.167965958123 0.423705101013
-0.0309482666676 0.15554518442 0.426844924688
-0.0308167706551 0.155684724478 0.425031304359
-0.0307730834251 0.15626331973 0.424428761005
-0.0307295172003 0.156840263113 0.423827886581
-0.0306860763025 0.157415586227 0.423228740692
-0.03064275641 0.157989276556 0.422631263733
-0.0306044712017 0.158586805318 0.422103226185
-0.0305913486106 0.15931338692 0.421922236681
-0.0305782368235 0.160039343375 0.421741396189
-0.0305650602121 0.160764277739 0.421559661627
-0.0305519678723 0.161488973039 0.421379089355
-0.0305433246375 0.162236620477 0.421259880066
-0.0305580916041 0.163108774666 0.421463549137
-0.0305728715355 0.163981765509 0.421667397022
-0.0305876665926 0.164855605661 0.421871453524
-0.0306025524036 0.165730705874 0.422076761723
-0.0306535345237 0.166802999551 0.422779917717
-0.0307205390403 0.167965544623 0.423704057932
-0.030144491354 0.155545575386 0.426845997572
-0.0300164108222 0.155685117465 0.425032377243
-0.0299737825569 0.15626331973 0.424428761005
-0.0299313479224 0.156840263113 0.423827886581
-0.0298890353596 0.157415586227 0.423228740692
-0.0298468406591 0.157989276556 0.422631263733
-0.0298095498718 0.158586805318 0.422103226185
-0.0297967681272 0.15931338692 0.421922236681
-0.0297839211374 0.160038936245 0.421740323305
-0.0297711625443 0.160764277739 0.421559661627
-0.0297584102652 0.161488973039 0.421379089355
-0.0297499915301 0.162236620477 0.421259880066
-0.0297643749391 0.163108774666 0.421463549137
-0.0297787709761 0.163981765509 0.421667397022
-0.029793181746 0.164855605661 0.421871453524
-0.0298076809126 0.165730705874 0.422076761723
-0.0298572630532 0.166802576257 0.422778844833
-0.0299225271927 0.167965119308 0.423702985048
-0.0293406382512 0.155545575386 0.426845997572
-0.0292159732003 0.155685117465 0.425032377243
-0.0291744816887 0.15626331973 0.424428761005
-0.0291331786445 0.156840263113 0.423827886581
-0.0290919944167 0.157415586227 0.423228740692
-0.0290509249082 0.157989276556 0.422631263733
-0.0290146285419 0.158586805318 0.422103226185
-0.0290021876438 0.15931338692 0.421922236681
-0.0289896832404 0.160038936245 0.421740323305
-0.0289772648764 0.160764277739 0.421559661627
-0.0289647809586 0.16148857329 0.421378046274
-0.0289565826259 0.162236195808 0.42125877738
-0.0289705845259 0.163108359454 0.421462476254
-0.0289845946201 0.163981336686 0.421666294336
-0.0289986211028 0.164855174762 0.421870350838
-0.0290126639739 0.165729875029 0.422074645758
-0.0290609997208 0.16680217648 0.422777831554
-0.0291245193861 0.167964693994 0.423701912165
-0.0285368588685 0.155545977213 0.426847100258
-0.0284155355784 0.155685117465 0.425032377243
-0.0283752505557 0.156263703764 0.424429804087
-0.0283350093666 0.156840263113 0.423827886581
-0.0282949534738 0.157415586227 0.423228740692
-0.0282550091573 0.157989276556 0.422631263733
-0.028219707212 0.158586805318 0.422103226185
-0.0282075354328 0.15931298181 0.421921163797
-0.0281954453434 0.160038936245 0.421740323305
-0.0281833672086 0.160764277739 0.421559661627
-0.0281712253159 0.16148857329 0.421378046274
-0.0281632515951 0.162236195808 0.42125877738
-0.0281768698814 0.163108359454 0.421462476254
-0.0281904961374 0.163981336686 0.421666294336
-0.0282041383328 0.164855174762 0.421870350838
-0.0282177964678 0.165729875029 0.422074645758
-0.02826473622 0.166801753186 0.422776758671
-0.0283265156205 0.167964268679 0.423700839281
-0.0277330733962 0.155546368179 0.426848173141
-0.0276150979565 0.155685117465 0.425032377243
-0.0275759477231 0.156263703764 0.424429804087
-0.0275368400886 0.156840263113 0.423827886581
-0.0274979125308 0.157415586227 0.423228740692
-0.0274590934064 0.157989276556 0.422631263733
-0.0274247858821 0.158586805318 0.422103226185
-0.0274129569699 0.15931298181 0.421921163797
-0.0274012074464 0.160038936245 0.421740323305
-0.0273893998336 0.160763868589 0.421558588743
-0.0273776696732 0.16148857329 0.421378046274
-0.0273698527934 0.162235794094 0.421257734299
-0.027383087466 0.163107955776 0.421461433172
-0.0273963337564 0.163980954223 0.42166531086
-0.0274095877921 0.164854767155 0.421869307756
-0.0274228611908 0.165729465458 0.422073602676
-0.0274684748239 0.166801318133 0.422775655985
-0.0275285178322 0.167963855179 0.4236997962
-0.0269292857631 0.155546770005 0.426849275827
-0.0268146603345 0.155685117465 0.425032377243
-0.0267766448906 0.156263703764 0.424429804087
-0.0267386708107 0.156840263113 0.423827886581
-0.0267008715879 0.157415586227 0.423228740692
-0.0266631776555 0.157989276556 0.422631263733
-0.0266297987457 0.158586413426 0.422102183104
-0.026618378507 0.15931298181 0.421921163797
-0.0266069695494 0.160038936245 0.421740323305
-0.0265955041862 0.160763868589 0.421558588743
-0.0265841140305 0.16148857329 0.421378046274
-0.0265765237269 0.162235794094 0.421257734299
-0.0265893747858 0.163107955776 0.421461433172
-0.0266022371258 0.163980954223 0.42166531086
-0.0266151069865 0.164854767155 0.421869307756
-0.0266279956491 0.165729465458 0.422073602676
-0.0266722213414 0.166800906598 0.422774612904
-0.0267305220925 0.167963429865 0.423698723316
-0.0261254264866 0.155546770005 0.426849275827
-0.0260142227126 0.155685117465 0.425032377243
-0.025977342058 0.156263703764 0.424429804087
-0.0259405671989 0.156840660141 0.423828959465
-0.025903830645 0.157415586227 0.423228740692
-0.0258672619046 0.157989276556 0.422631263733
-0.0258348793802 0.158586413426 0.422102183104
-0.0258238000441 0.15931298181 0.421921163797
-0.0258126678103 0.160038540424 0.421739280224
-0.0258016085389 0.160763868589 0.421558588743
-0.0257905583878 0.16148857329 0.421378046274
-0.0257831344665 0.162235415335 0.421256750822
-0.0257955964395 0.163107540564 0.421460360289
-0.025808073005 0.163980525401 0.421664208174
-0.0258205623389 0.164854359548 0.421868264675
-0.0258330644412 0.165729044184 0.422072529793
-0.0258759717876 0.166800495062 0.422773569822
-0.0259325303937 0.16796300455 0.423697650433
-0.0253216308557 0.155547160971 0.426850348711
-0.0252137850907 0.155685117465 0.425032377243
-0.0251780392255 0.156263703764 0.424429804087
-0.0251423959005 0.156840660141 0.423828959465
-0.0251067897021 0.157415586227 0.423228740692
-0.0250713461536 0.157989276556 0.422631263733
-0.0250399600146 0.158586413426 0.422102183104
-0.0250292215812 0.15931298181 0.421921163797
-0.0250184318777 0.160038540424 0.421739280224
-0.0250077128915 0.160763868589 0.421558588743
-0.0249969373315 0.161488150697 0.421376943588
-0.0249898072522 0.162235415335 0.421256750822
-0.0250018857798 0.163107540564 0.421460360289
-0.025013978451 0.163980525401 0.421664208174
-0.0250260834977 0.164854359548 0.421868264675
-0.0250382009199 0.165729044184 0.422072529793
-0.0250797243947 0.166800071768 0.422772496939
-0.025134542736 0.167962579236 0.423696577549
-0.0245178328957 0.155547562797 0.426851451397
-0.0244133474688 0.155685117465 0.425032377243
-0.0243787363929 0.156263703764 0.424429804087
-0.024344224602 0.156840660141 0.423828959465
-0.0243097487592 0.157415586227 0.423228740692
-0.0242754304027 0.157989276556 0.422631263733
-0.0242450406491 0.158586413426 0.422102183104
-0.024234583205 0.159312587954 0.421920120716
-0.0242241959451 0.160038540424 0.421739280224
-0.0242138172442 0.160763868589 0.421558588743
-0.0242033837654 0.161488150697 0.421376943588
-0.0241964167009 0.162234990666 0.421255648136
-0.0242081152068 0.163107136885 0.421459317207
-0.0242198239837 0.163980119758 0.421663165092
-0.0242315447431 0.164853951941 0.421867221594
-0.0242432774853 0.165728634613 0.422071486712
-0.0242834827545 0.166799660232 0.422771453857
-0.024336560831 0.167962165735 0.423695534468
-0.0237140291267 0.155547953763 0.426852524281
-0.0236129098468 0.155685117465 0.425032377243
-0.0235794335604 0.156263703764 0.424429804087
-0.0235460533036 0.156840660141 0.423828959465
-0.0235127657652 0.157415974191 0.423229783773
-0.0234795146518 0.157989276556 0.422631263733
-0.0234501212835 0.158586413426 0.422102183104
-0.0234400067064 0.159312587954 0.421920120716
-0.0234299600124 0.160038540424 0.421739280224
-0.0234198636479 0.160763470803 0.421557545662
-0.0234098301993 0.161488150697 0.421376943588
-0.0234030915631 0.162234990666 0.421255648136
-0.0234144065115 0.163107136885 0.421459317207
-0.023425731394 0.163980119758 0.421663165092
-0.0234370678663 0.164853951941 0.421867221594
-0.0234484159284 0.165728634613 0.422071486712
-0.0234872417317 0.16679922518 0.422770351171
-0.0235385811991 0.167961740421 0.423694461584
-0.0229101637326 0.155547953763 0.426852524281
-0.0228124722249 0.155685117465 0.425032377243
-0.0227801307278 0.156263703764 0.424429804087
-0.0227478820052 0.156840660141 0.423828959465
-0.0227157228579 0.157415974191 0.423229783773
-0.0226836564851 0.157989677624 0.422632336617
-0.0226551459334 0.158586021534 0.422101140022
-0.0226454302079 0.159312587954 0.421920120716
-0.0226357240798 0.160038540424 0.421739280224
-0.0226259699649 0.160763470803 0.421557545662
-0.0226162766333 0.161488150697 0.421376943588
-0.0226097120404 0.16223460043 0.421254634857
-0.0226206402321 0.163106721673 0.421458244324
-0.0226315828198 0.163979714115 0.421662122011
-0.0226425334054 0.164853532688 0.42186614871
-0.0226534967874 0.165728213339 0.422070413828
-0.0226910080613 0.166798813644 0.42276930809
-0.0227406056082 0.167961315106 0.4236933887
-0.0221063554455 0.155548355589 0.426853626966
-0.022012034603 0.155685117465 0.425032377243
-0.0219808278953 0.156263703764 0.424429804087
-0.0219497107068 0.156840660141 0.423828959465
-0.0219186799506 0.157415974191 0.423229783773
-0.0218877387137 0.157989677624 0.422632336617
-0.0218602285322 0.158586021534 0.422101140022
-0.0218508537094 0.159312587954 0.421920120716
-0.0218414325835 0.160038133294 0.42173820734
-0.0218320762819 0.160763470803 0.421557545662
-0.0218227230672 0.161488150697 0.421376943588
-0.0218163888109 0.16223460043 0.421254634857
-0.0218269335573 0.163106721673 0.421458244324
-0.0218374921946 0.163979714115 0.421662122011
-0.021848058549 0.164853532688 0.42186614871
-0.021858637251 0.165728213339 0.422070413828
-0.0218947767762 0.16679839035 0.422768235207
-0.0219426340583 0.167960889792 0.423692315817
-0.0219907012475 0.16912848414 0.424620449543
-0.0213025400306 0.155548735695 0.426854670048
-0.0212116505242 0.155685510451 0.425033450127
-0.0211815250627 0.156263703764 0.424429804087
-0.0211515394083 0.156840660141 0.423828959465
-0.0211216370433 0.157415974191 0.423229783773
-0.0210918209423 0.157989677624 0.422632336617
-0.0210653111311 0.158586021534 0.422101140022
-0.0210562772109 0.159312587954 0.421920120716
-0.0210471986714 0.160038133294 0.42173820734
-0.0210381825989 0.160763470803 0.421557545662
-0.0210291174453 0.161487750948 0.421375900507
-0.0210230655814 0.16223460043 0.421254634857
-0.0210331748266 0.163106317995 0.421457201242
-0.0210433495135 0.163979308473 0.42166107893
-0.0210535316369 0.164853125081 0.421865105629
-0.0210637241714 0.165727792066 0.422069340944
-0.0210985480448 0.166797955298 0.422767132521
-0.0211446680367 0.167960476292 0.423691272736
-0.0211909843535 0.169128044935 0.424619346857
-0.0204987221182 0.155549126661 0.426855742931
-0.0204112108818 0.155685510451 0.425033450127
-0.0203822222302 0.156263703764 0.424429804087
-0.0203533681099 0.156840660141 0.423828959465
-0.020324594136 0.157415974191 0.423229783773
-0.0202959031708 0.157989677624 0.422632336617
-0.0202703937299 0.158586021534 0.422101140022
-0.0202616491897 0.159312182844 0.421919047832
-0.0202529647593 0.160038133294 0.42173820734
-0.020244288916 0.160763470803 0.421557545662
-0.0202355658436 0.161487750948 0.421375900507
-0.0202296908292 0.162234187238 0.421253561974
-0.0202394701162 0.163106317995 0.421457201242
-0.0202492608526 0.163979308473 0.42166107893
-0.0202590587449 0.164853125081 0.421865105629
-0.0202688666555 0.165727792066 0.422069340944
-0.020302326329 0.166797543762 0.422766089439
-0.0203467045127 0.167960050977 0.423690199852
-0.0203912744751 0.16912762947 0.424618303776
-0.0196948506626 0.155549126661 0.426855742931
-0.0196107712394 0.155685510451 0.425033450127
-0.0195829688998 0.156264098772 0.42443087697
-0.0195551968115 0.156840660141 0.423828959465
-0.0195275512287 0.157415974191 0.423229783773
-0.0194999853994 0.157989677624 0.422632336617
-0.0194754763287 0.158586021534 0.422101140022
-0.0194670747117 0.159312182844 0.421919047832
-0.0194587308471 0.160038133294 0.42173820734
-0.0194503457308 0.160763061653 0.421556472778
-0.0194420142418 0.161487750948 0.421375900507
-0.0194363696202 0.162234187238 0.421253561974
-0.0194457654057 0.163106317995 0.421457201242
-0.0194551721917 0.163979308473 0.42166107893
-0.0194645858529 0.164853125081 0.421865105629
-0.0194740091396 0.165727792066 0.422069340944
-0.0195061085419 0.166797132226 0.422765046358
-0.0195487450296 0.167959625663 0.423689126968
-0.0195915685255 0.169127214005 0.424617260695
-0.0188910266886 0.155549517627 0.426856815815
-0.0188103315969 0.155685510451 0.425033450127
-0.0187836640467 0.156264098772 0.42443087697
-0.018757025513 0.156840660141 0.423828959465
-0.0187305083214 0.157415974191 0.423229783773
-0.018704067628 0.157989677624 0.422632336617
-0.0186805114459 0.158585618445 0.422100067139
-0.0186725002336 0.159312182844 0.421919047832
-0.018664496935 0.160038133294 0.42173820734
-0.0186564540683 0.160763061653 0.421556472778
-0.0186484626401 0.161487750948 0.421375900507
-0.0186430022485 0.162233785524 0.421252518892
-0.0186520132136 0.163105902783 0.421456128359
-0.0186610360491 0.16397889124 0.421660006046
-0.0186700667982 0.164852717474 0.421864062548
-0.018679105461 0.165727382494 0.422068297863
-0.0187098946836 0.16679672069 0.422764003277
-0.0187507895876 0.167959200348 0.423688054085
-0.0187918651856 0.16912678667 0.424616187811
-0.0180871999365 0.155549919454 0.426857918501
-0.0180098919545 0.155685510451 0.425033450127
-0.0179843591937 0.156264098772 0.42443087697
-0.0179588542146 0.156840660141 0.423828959465
-0.0179334654141 0.157415974191 0.423229783773
-0.0179081498566 0.157989677624 0.422632336617
-0.0178855960652 0.158585618445 0.422100067139
-0.0178779257556 0.159312182844 0.421919047832
-0.0178702188245 0.160037737473 0.421737164259
-0.0178625624059 0.160763061653 0.421556472778
-0.0178549110384 0.161487750948 0.421375900507
-0.0178496830039 0.162233785524 0.421252518892
-0.0178583105237 0.163105902783 0.421456128359
-0.0178669494087 0.16397889124 0.421660006046
-0.0178755958707 0.164852717474 0.421864062548
-0.0178842499094 0.165727382494 0.422068297863
-0.0179136834912 0.166796297396 0.422762930393
-0.0179528381865 0.167958775034 0.423686981201
-0.0179921671496 0.169126371206 0.42461514473
-0.0172833678244 0.15555031042 0.426858991385
-0.0172094523121 0.155685510451 0.425033450127
-0.0171850543406 0.156264098772 0.42443087697
-0.0171607275636 0.156841068197 0.423830062151
-0.0171364225068 0.157415974191 0.423229783773
-0.0171122320852 0.157989677624 0.422632336617
-0.0170906806845 0.158585618445 0.422100067139
-0.0170833512776 0.159312182844 0.421919047832
-0.0170759868768 0.160037737473 0.421737164259
-0.0170686707434 0.160763061653 0.421556472778
-0.0170613172027 0.161487351198 0.421374857426
-0.0170563203186 0.162233372333 0.421251446009
-0.0170645668064 0.163105510638 0.42145511508
-0.0170728205344 0.163978485598 0.421658962965
-0.0170810827091 0.164852309867 0.421863019466
-0.0170893509172 0.165726961221 0.422067224979
-0.0171174775465 0.16679588586 0.422761887312
-0.0171548908264 0.167958349719 0.423685908318
-0.0171924706289 0.169125932 0.424614042044
-0.0164794902512 0.15555031042 0.426858991385
-0.0164090126697 0.155685510451 0.425033450127
-0.0163857494876 0.156264098772 0.42443087697
-0.0163625541885 0.156841068197 0.423830062151
-0.0163393795995 0.157415974191 0.423229783773
-0.0163163143138 0.157989677624 0.422632336617
-0.0162957653038 0.158585618445 0.422100067139
-0.0162887353794 0.159311777735 0.421917974949
-0.016281754929 0.160037737473 0.421737164259
-0.0162747790809 0.160763061653 0.421556472778
-0.0162677675654 0.161487351198 0.421374857426
-0.0162630030945 0.162233372333 0.421251446009
-0.0162708660247 0.163105510638 0.42145511508
-0.0162787358583 0.163978485598 0.421658962965
-0.0162866137459 0.164852309867 0.421863019466
-0.0162944973862 0.165726961221 0.422067224979
-0.0163212755306 0.166795474325 0.422760844231
-0.0163569486579 0.167957936219 0.423684865236
-0.016392779412 0.169125504665 0.42461296916
-0.0156756531721 0.155550712246 0.42686009407
-0.0156085730272 0.155685510451 0.425033450127
-0.0155864446345 0.156264098772 0.42443087697
-0.0155643808135 0.156841068197 0.423830062151
-0.0155423366922 0.157415974191 0.423229783773
-0.0155203965424 0.157989677624 0.422632336617
-0.0155008499232 0.158585618445 0.422100067139
-0.0154941629219 0.159311777735 0.421917974949
-0.0154875229813 0.160037737473 0.421737164259
-0.0154808491132 0.160762663868 0.421555429697
-0.0154742179281 0.161487351198 0.421374857426
-0.0154696475651 0.162232970619 0.421250402927
-0.0154771269378 0.16310510696 0.421454071999
-0.0154846128771 0.163978079955 0.421657919884
-0.015492105383 0.164851890614 0.421861946583
-0.0154996055499 0.165726551649 0.422066181898
-0.0155250752545 0.166795039272 0.422759741545
-0.0155590082293 0.16795749909 0.42368376255
-0.0155930911417 0.16912506546 0.424611866474
-0.0148718109014 0.155551103212 0.426861166954
-0.0148081333848 0.155685510451 0.425033450127
-0.0147871397815 0.156264098772 0.42443087697
-0.0147662074384 0.156841068197 0.423830062151
-0.0147453301258 0.157416362154 0.423230826855
-0.014724478771 0.157989677624 0.422632336617
-0.0147058982016 0.158585226553 0.422099024057
-0.0146995904643 0.159311777735 0.421917974949
-0.0146932910335 0.160037737473 0.421737164259
-0.0146869594151 0.160762663868 0.421555429697
-0.0146806682907 0.161487351198 0.421374857426
-0.0146763323054 0.162232970619 0.421250402927
-0.0146834281205 0.16310510696 0.421454071999
-0.0146905301654 0.163978079955 0.421657919884
-0.0146976384403 0.164851890614 0.421861946583
-0.0147047539833 0.165726551649 0.422066181898
-0.0147288801699 0.166794615978 0.422758668661
-0.0147610750688 0.167957097404 0.423682749271
-0.0147934080629 0.169124638125 0.424610793591
-0.0140679655719 0.155551505038 0.42686226964
-0.0140076937424 0.155685510451 0.425033450127
-0.0139878349284 0.156264098772 0.42443087697
-0.0139680340634 0.156841068197 0.423830062151
-0.0139482852542 0.157416362154 0.423230826855
-0.0139285609996 0.157989677624 0.422632336617
-0.0139109847853 0.158585226553 0.422099024057
-0.0139050180068 0.159311777735 0.421917974949
-0.0138990237271 0.160037330343 0.421736091375
-0.0138930697169 0.160762663868 0.421555429697
-0.0138871186534 0.161487351198 0.421374857426
-0.0138829826691 0.162232568905 0.421249359846
-0.0138896949267 0.163104703282 0.421453028917
-0.0138964111129 0.163977651132 0.421656817198
-0.0139031361389 0.164851471361 0.421860873699
-0.0139098670579 0.165726130376 0.422065109015
-0.0139326901086 0.166794204443 0.42275762558
-0.0139631437604 0.16795667209 0.423681676388
-0.0139937290252 0.16912421079 0.424609720707
-0.013264081825 0.155551505038 0.42686226964
-0.0132072874382 0.155685903438 0.42503452301
-0.0131885300753 0.156264098772 0.42443087697
-0.0131698606883 0.156841068197 0.423830062151
-0.0131512403825 0.157416362154 0.423230826855
-0.0131326747143 0.157990056411 0.422633349895
-0.013116071369 0.158585226553 0.422099024057
-0.0131104455493 0.159311777735 0.421917974949
-0.0131047937998 0.160037330343 0.421736091375
-0.0130991800188 0.160762663868 0.421555429697
-0.0130935366039 0.161486951448 0.421373814344
-0.0130896693737 0.162232568905 0.421249359846
-0.0130959980737 0.163104703282 0.421453028917
-0.0131023304779 0.163977651132 0.421656817198
-0.0131086712166 0.164851471361 0.421860873699
-0.0131150175118 0.165726130376 0.422065109015
-0.0131365021238 0.16679376939 0.422756522894
-0.0131652164931 0.167956246775 0.423680603504
-0.0131940873666 0.16912421079 0.424609720707
-0.0124602293957 0.155551896004 0.426863342524
-0.0124068457753 0.155685903438 0.42503452301
-0.0123892252223 0.156264098772 0.42443087697
-0.0123716873133 0.156841068197 0.423830062151
-0.0123541955108 0.157416362154 0.423230826855
-0.0123367550346 0.157990056411 0.422633349895
-0.0123211579527 0.158585226553 0.422099024057
-0.0123158435139 0.159311395131 0.42191696167
-0.0123105638725 0.160037330343 0.421736091375
-0.0123052903207 0.160762663868 0.421555429697
-0.012299988931 0.161486951448 0.421373814344
-0.0122963247607 0.162232155713 0.421248286963
-0.012302270773 0.163104299603 0.421451985836
-0.0123082193951 0.16397724549 0.421655774117
-0.0123141758467 0.164851063754 0.421859830618
-0.0123201366479 0.165725709102 0.422064036131
-0.0123403200322 0.166793357855 0.422755479813
-0.0123672923968 0.167955809646 0.423679500818
-0.0123944143903 0.169123783455 0.424608647823
-0.0116563737392 0.155552297831 0.42686444521
-0.0116064041123 0.155685903438 0.42503452301
-0.0115899203692 0.156264098772 0.42443087697
-0.0115735139382 0.156841068197 0.423830062151
-0.0115571506392 0.157416362154 0.423230826855
-0.011540835355 0.157990056411 0.422633349895
-0.0115262144254 0.158584812267 0.422097921371
-0.0115212729646 0.159311395131 0.42191696167
-0.0115163339453 0.160037330343 0.421736091375
-0.0115113713254 0.160762254717 0.421554356813
-0.011506441258 0.161486951448 0.421373814344
-0.0115030134858 0.162232155713 0.421248286963
-0.0115085758844 0.163104299603 0.421451985836
-0.0115141407245 0.16397724549 0.421655774117
-0.0115197128888 0.164851063754 0.421859830618
-0.0115252891222 0.165725709102 0.422064036131
-0.0115441410555 0.166792934561 0.422754406929
-0.0115693740813 0.167955396146 0.423678457737
-0.011594745455 0.16912335612 0.42460757494
-0.0108525131719 0.155552688797 0.426865518093
-0.0108059624494 0.155685903438 0.42503452301
-0.0107906420352 0.156264482806 0.424431920052
-0.0107753405632 0.156841068197 0.423830062151
-0.0107601057675 0.157416362154 0.423230826855
-0.0107449156753 0.157990056411 0.422633349895
-0.0107313030857 0.158584812267 0.422097921371
-0.0107267024153 0.159311395131 0.42191696167
-0.010722104018 0.160037330343 0.421736091375
-0.0107174836478 0.160762254717 0.421554356813
-0.010712893585 0.161486951448 0.421373814344
-0.0107096749342 0.162231742522 0.421247214079
-0.0107148529614 0.163103872858 0.42145088315
-0.0107200347771 0.163976828257 0.421654701233
-0.0107252226543 0.164850644501 0.421858757734
-0.0107304150775 0.165725299531 0.42206299305
-0.0107479668775 0.166792523025 0.422753363848
-0.0107714589369 0.167954970832 0.423677384853
-0.0107950805607 0.169122928785 0.424606502056
-0.0100486233073 0.155552688797 0.426865518093
-0.0100055207865 0.155685903438 0.42503452301
-0.00999133521779 0.156264482806 0.424431920052
-0.00997716718811 0.156841068197 0.423830062151
-0.00996306089583 0.157416362154 0.423230826855
-0.00994899599566 0.157990056411 0.422633349895
-0.00993639174603 0.158584812267 0.422097921371
-0.00993213186605 0.159311395131 0.42191696167
-0.00992784883455 0.160036923213 0.421735018492
-0.00992359597018 0.160762254717 0.421554356813
-0.00991934591206 0.161486951448 0.421373814344
-0.00991636567982 0.162231742522 0.421247214079
-0.00992116014948 0.163103872858 0.42145088315
-0.00992595812695 0.163976828257 0.421654701233
-0.00993076171691 0.164850644501 0.421858757734
-0.00993556951623 0.165725299531 0.42206299305
-0.00995179662821 0.166792111489 0.422752320766
-0.00997354853512 0.167954557331 0.423676341772
-0.00999542040901 0.16912251332 0.424605458975
-0.0092447566784 0.155553079763 0.426866590977
-0.00920507912357 0.155685903438 0.42503452301
-0.00919202840036 0.156264482806 0.424431920052
-0.00917899381306 0.156841068197 0.423830062151
-0.00916601602416 0.157416362154 0.423230826855
-0.009153076316 0.157990056411 0.422633349895
-0.00914148040635 0.158584812267 0.422097921371
-0.00913753808106 0.159310990022 0.421915888786
-0.00913362092779 0.160036923213 0.421735018492
-0.00912970829257 0.160762254717 0.421554356813
-0.00912577564882 0.161486551699 0.421372771263
-0.00912303383517 0.162231340808 0.421246170998
-0.00912744410182 0.163103457646 0.421449810266
-0.00913185888652 0.163976422615 0.421653658152
-0.00913627818928 0.164850236894 0.421857714653
-0.00914070136466 0.165724889959 0.422061949968
-0.00915563030768 0.166791699953 0.422751277685
-0.00917564077117 0.167954120203 0.423675239086
-0.00919576289515 0.169122074115 0.424604356289
-0.00844088659785 0.155553481589 0.426867693663
-0.00840463746065 0.155685903438 0.42503452301
-0.00839272158294 0.156264482806 0.424431920052
-0.00838083988529 0.156841432139 0.423831045628
-0.00836897115249 0.157416362154 0.423230826855
-0.00835715663635 0.157990056411 0.422633349895
-0.00834656906667 0.158584812267 0.422097921371
-0.00834296955227 0.159310990022 0.421915888786
-0.00833939302102 0.160036923213 0.421735018492
-0.00833582061495 0.160762254717 0.421554356813
-0.00833222994023 0.161486551699 0.421372771263
-0.00832972654515 0.162231340808 0.421246170998
-0.00833375331035 0.163103457646 0.421449810266
-0.00833778420074 0.163976422615 0.421653658152
-0.0083418192163 0.164850236894 0.421857714653
-0.00834585776774 0.165724889959 0.422061949968
-0.0083594679159 0.166791288417 0.422750234604
-0.00837773774977 0.167953694888 0.423674166203
-0.00839611071315 0.16912165865 0.424603313208
-0.00763701129768 0.155553861695 0.426868736744
-0.00760419579774 0.155685903438 0.42503452301
-0.00759341476552 0.156264482806 0.424431920052
-0.00758266465812 0.156841432139 0.423831045628
-0.00757192628083 0.157416362154 0.423230826855
-0.0075612369567 0.157990056411 0.422633349895
-0.00755163906546 0.158584420375 0.42209687829
-0.00754840102348 0.159310990022 0.421915888786
-0.00754516511426 0.160036923213 0.421735018492
-0.00754191427581 0.160761856932 0.421553313732
-0.00753868423164 0.161486551699 0.421372771263
-0.00753640006042 0.162230927616 0.421245098114
-0.00754004385736 0.163103053967 0.421448767185
-0.00754369085342 0.163976016972 0.42165261507
-0.00754734104861 0.164849817641 0.421856641769
-0.00755099550928 0.165724480388 0.422060906887
-0.00756330838648 0.166790853365 0.422749131918
-0.00757983930255 0.167953281388 0.423673123121
-0.0075964619267 0.169121231315 0.424602240324
-0.00683311537161 0.155553861695 0.426868736744
-0.00680375413482 0.155685903438 0.42503452301
-0.00679410794809 0.156264482806 0.424431920052
-0.00678448943095 0.156841432139 0.423831045628
-0.00677488140916 0.157416362154 0.423230826855
-0.00676531727705 0.157990056411 0.422633349895
-0.00675672969014 0.158584420375 0.42209687829
-0.0067538324947 0.159310990022 0.421915888786
-0.00675092051034 0.160036527392 0.42173397541
-0.00674802856257 0.160761856932 0.421553313732
-0.00674513852304 0.161486551699 0.421372771263
-0.0067430947909 0.162230927616 0.421245098114
-0.00674635503027 0.163103053967 0.421448767185
-0.00674961813201 0.163976016972 0.42165261507
-0.00675288409612 0.164849817641 0.421856641769
-0.00675615387672 0.165724480388 0.422060906887
-0.00676715348737 0.166790430071 0.422748059034
-0.00678196148123 0.167953281388 0.423673123121
-0.00679681765831 0.169120815851 0.424601197243
-0.00602923544113 0.155554274381 0.426869869232
-0.0060033124719 0.155685903438 0.42503452301
-0.00599480113067 0.156264482806 0.424431920052
-0.00598631420378 0.156841432139 0.423831045628
-0.00597785169122 0.157416761202 0.423231899738
-0.00596939759739 0.157990056411 0.422633349895
-0.00596182031483 0.158584420375 0.42209687829
-0.00595926396591 0.159310990022 0.421915888786
-0.00595669456794 0.160036527392 0.42173397541
-0.00595414284932 0.160761856932 0.421553313732
-0.00595159281445 0.161486551699 0.421372771263
-0.0059497747886 0.162230525902 0.421244055033
-0.00595265062852 0.163102627221 0.421447664499
-0.00595553067781 0.163975611329 0.421651571989
-0.00595841198991 0.164849398388 0.421855568886
-0.00596129709044 0.165724059114 0.422059834003
-0.00597100305018 0.166790018535 0.422747015953
-0.00598406808524 0.167952844259 0.423672020435
-0.00599717647679 0.169120376646 0.424600094557
-0.00522535015073 0.155554654487 0.426870912313
-0.00520287080898 0.155685903438 0.42503452301
-0.00519549431325 0.156264482806 0.424431920052
-0.00518813897661 0.156841432139 0.423831045628
-0.00518080479906 0.157416761202 0.423231899738
-0.00517347791774 0.157990056411 0.422633349895
-0.00516691093952 0.158584420375 0.42209687829
-0.00516468266871 0.159310596165 0.421914845705
-0.00516246862555 0.160036527392 0.42173397541
-0.00516025713608 0.160761856932 0.421553313732
-0.00515803433744 0.161486151949 0.421371728182
-0.00515647148345 0.162230525902 0.421244055033
-0.00515896387805 0.163102627221 0.421447664499
-0.00516145992077 0.163975611329 0.421651571989
-0.00516395705792 0.164849398388 0.421855568886
-0.00516645747838 0.165724059114 0.422059834003
-0.00517485581212 0.166789583483 0.422745913267
-0.00518617957213 0.167952430759 0.423670977354
-0.00519753981333 0.169119949311 0.424599021673
-0.00442146124027 0.155555045453 0.426871985197
-0.0044024399501 0.155686285508 0.425035566092
-0.00439618749583 0.156264482806 0.424431920052
-0.00438996374944 0.156841432139 0.423831045628
-0.00438375790689 0.157416761202 0.423231899738
-0.00437756935082 0.15799045748 0.422634422779
-0.00437200156421 0.158584420375 0.42209687829
-0.00437011610429 0.159310596165 0.421914845705
-0.00436824268316 0.160036527392 0.42173397541
-0.00436636031011 0.160761447781 0.421552240849
-0.00436449059322 0.161486151949 0.421371728182
-0.00436316817831 0.162230525902 0.421244055033
-0.00436527712758 0.163102627221 0.421447664499
-0.00436738916373 0.163975611329 0.421651571989
-0.00436950212594 0.164849398388 0.421855568886
-0.00437161786633 0.165724059114 0.422059834003
-0.00437871334467 0.166789171947 0.422744870186
-0.00438829498776 0.167952017259 0.423669934273
-0.00439790688217 0.169119510105 0.424597918987
-0.00361755919659 0.155555045453 0.426871985197
-0.00360199632281 0.155686285508 0.425035566092
-0.0035968806784 0.156264482806 0.424431920052
-0.00359178852227 0.156841432139 0.423831045628
-0.00358671101473 0.157416761202 0.423231899738
-0.00358164765067 0.15799045748 0.422634422779
-0.00357708334923 0.158584028482 0.422095835209
-0.00357554953987 0.159310596165 0.421914845705
-0.00357401674077 0.160036527392 0.42173397541
-0.00357247661736 0.160761447781 0.421552240849
-0.003570946849 0.161486151949 0.421371728182
-0.00356985603349 0.162230124188 0.421243011951
-0.00357158153744 0.163102223543 0.421446621418
-0.00357330906189 0.163975182507 0.421650469303
-0.00357503835428 0.16484899078 0.421854525805
-0.00357676916203 0.165723637841 0.42205876112
-0.00358257455341 0.166788748653 0.422743797302
-0.00359041407957 0.167951591944 0.423668861389
-0.00359827860937 0.169119094641 0.424596875906
-0.00281366442107 0.155555447279 0.426873087883
-0.00280155269552 0.155686285508 0.425035566092
-0.00279757386098 0.156264482806 0.424431920052
-0.0027936132951 0.156841432139 0.423831045628
-0.00278966412257 0.157416761202 0.423231899738
-0.00278572595052 0.15799045748 0.422634422779
-0.00278217593829 0.158584028482 0.422095835209
-0.00278098297546 0.159310596165 0.421914845705
-0.00277978372664 0.160036120262 0.421732902527
-0.00277859292461 0.160761447781 0.421552240849
-0.00277740310478 0.161486151949 0.421371728182
-0.00277655469271 0.162230124188 0.421243011951
-0.00277789675134 0.163102223543 0.421446621418
-0.00277924038147 0.163975182507 0.421650469303
-0.00278058538666 0.16484899078 0.421854525805
-0.00278193157047 0.165723637841 0.42205876112
-0.00278643999957 0.166788337117 0.422742754221
-0.00279253740881 0.167951178444 0.423667818308
-0.00279865406889 0.169118667306 0.424595803022
-0.00200976535201 0.155555838245 0.426874160767
-0.00200110906823 0.155686285508 0.425035566092
-0.00199827195449 0.156264866841 0.424432963133
-0.00199543806793 0.156841432139 0.423831045628
-0.00199261723041 0.157416761202 0.423231899738
-0.00198980425037 0.15799045748 0.422634422779
-0.00198726852735 0.158584028482 0.422095835209
-0.00198641641104 0.159310596165 0.421914845705
-0.00198555980474 0.160036120262 0.421732902527
-0.00198470923187 0.160761447781 0.421552240849
-0.00198385430931 0.161485740778 0.421370655298
-0.0019832483007 0.162229710997 0.421241939068
-0.00198420705432 0.163101819865 0.421445578337
-0.00198516693043 0.163974788454 0.421649456024
-0.0019861273678 0.164848571527 0.421853452921
-0.00198708920829 0.165723239971 0.422057747841
-0.00199030937448 0.166787925581 0.42274171114
-0.00199466438617 0.167950741315 0.423666715622
-0.0019990337097 0.169118251841 0.424594759941
-0.00121032097245 0.155324524798 0.428453624249
-0.00120586232614 0.155556240072 0.426875263453
-0.00120066544094 0.155686285508 0.425035566092
-0.00119896317269 0.156264866841 0.424432963133
-0.00119726284076 0.156841432139 0.423831045628
-0.00119557033824 0.157416761202 0.423231899738
-0.00119388255022 0.15799045748 0.422634422779
-0.00119236111641 0.158584028482 0.422095835209
-0.00119184681588 0.159310191056 0.421913772821
-0.00119133588284 0.160036120262 0.421732902527
-0.00119082553912 0.160761447781 0.421552240849
-0.00119031258559 0.161485740778 0.421370655298
-0.00118994898042 0.162229710997 0.421241939068
-0.00119052423259 0.163101819865 0.421445578337
-0.00119110015826 0.163974788454 0.421649456024
-0.00119167642068 0.164848571527 0.421853452921
-0.00119225352497 0.165723239971 0.422057747841
-0.00119418250976 0.166787490529 0.422740608454
-0.00119679568514 0.167950327815 0.423665672541
-0.00119941711089 0.169117812636 0.424593657255
-0.000426208484644 0.157270930834 0.452633410692
-0.000426206183523 0.158122494087 0.452630966902
-0.000426207362146 0.158975346081 0.452632218599
-0.000426201581281 0.159825592981 0.452626079321
-0.000426198157663 0.160676705439 0.452622443438
-0.000426194705981 0.161527793567 0.452618777752
-0.000426191282362 0.16237887858 0.452615141869
-0.000426187802618 0.163229928403 0.452611446381
-0.000403440324151 0.155324524798 0.428453624249
-0.000401954108712 0.155556240072 0.426875263453
-0.000400221813646 0.155686285508 0.425035566092
-0.000399654390897 0.156264866841 0.424432963133
-0.000399087613585 0.156841432139 0.423831045628
-0.000398523446081 0.157416761202 0.423231899738
-0.000397960850074 0.15799045748 0.422634422779
-0.00039745370547 0.158584028482 0.422095835209
-0.00039728227196 0.159310191056 0.421913772821
-0.000397111960948 0.160036120262 0.421732902527
-0.000396940864188 0.160761049996 0.421551197767
-0.000396770861863 0.161485740778 0.421370655298
-0.000396648677953 0.162229309283 0.421240895987
-0.000396840428677 0.163101416186 0.421444535255
-0.000397032375839 0.163974371221 0.421648383141
-0.000397224491374 0.16484816392 0.42185240984
-0.000397416803347 0.165722806996 0.422056645155
-0.000398059826337 0.166787067235 0.42273953557
-0.000398930884799 0.167949902501 0.423664599657
-0.000399804693382 0.169117385301 0.424592584372
0.000424925890346 0.155947801757 0.451271295547
0.000420853271098 0.155294857035 0.446946173906
0.000420865562452 0.15614112367 0.446959227324
0.000420858855526 0.156980353111 0.446952104568
0.000420855544157 0.157820829059 0.446948587894
0.000420851026102 0.158660836841 0.446943789721
0.000420851026102 0.159502538893 0.446943789721
0.000420847658608 0.16034295793 0.446940213442
0.000420845441675 0.161183804161 0.446937859058
0.000403441362462 0.155324924548 0.428454726934
0.000401955118961 0.155556631038 0.426876336336
0.000400221813646 0.155686285508 0.425035566092
0.000399654390897 0.156264866841 0.424432963133
0.000399088651896 0.156841840195 0.423832148314
0.000398523446081 0.157416761202 0.423231899738
0.000397960850074 0.15799045748 0.422634422779
0.000397452695222 0.158583625393 0.422094762325
0.00039728227196 0.159310191056 0.421913772821
0.000397111960948 0.160036120262 0.421732902527
0.000396940864188 0.160761049996 0.421551197767
0.000396770861863 0.161485740778 0.421370655298
0.000396648677953 0.162229309283 0.421240895987
